ply
format ascii 1.0
element face 0
property list uchar int vertex_indices
element vertex 900
property float x
property float y
property float z
property uchar diffuse_red
property uchar diffuse_green
property uchar diffuse_blue
end_header
-1.282157e+00 -1.665861e+00 -3.051209e+00 106 116 125
-1.241948e+00 -1.648886e+00 -3.062433e+00 99 110 119
-1.147967e+00 -1.645785e+00 -3.066901e+00 32 35 41
-1.801863e+00 -1.618073e+00 -3.054361e+00 161 161 162
-1.798651e+00 -1.585960e+00 -3.063754e+00 164 162 165
5.952177e-01 -1.634042e+00 -3.441506e+00 47 54 78
-1.355909e+00 -1.640126e+00 -3.063243e+00 149 152 157
-1.219658e+00 -1.625683e+00 -3.071070e+00 117 130 136
-1.219564e+00 -1.625553e+00 -3.070811e+00 117 130 136
-1.084167e+00 -1.619647e+00 -3.073820e+00 152 158 164
-9.649332e-01 -1.444937e+00 -3.127102e+00 158 160 165
-1.788211e+00 -1.633466e+00 -3.048413e+00 122 126 127
-8.035354e-01 -1.551478e-02 -3.315450e+00 181 183 157
-5.691769e-01 -1.705738e-02 -3.060295e+00 222 215 193
1.360044e+00 -2.322521e+00 -4.789298e+00 182 186 193
-6.254588e-01 -4.955626e-01 -3.231604e+00 209 209 204
-7.035333e-01 -5.976486e-01 -3.530343e+00 145 145 110
-1.333228e-01 -3.250311e-01 -3.660165e+00 101 102 106
9.646881e-01 -2.009875e+00 -3.954599e+00 90 105 146
6.482566e-01 -1.704027e+00 -3.424223e+00 193 198 215
2.241404e-01 -1.324014e+00 -2.784072e+00 204 210 208
-1.915579e-01 -2.070183e-01 -3.654762e+00 163 165 151
6.682823e-02 -8.305253e-02 -3.430075e+00 15 15 15
1.087997e-02 1.629295e-01 -3.644290e+00 32 34 33
-1.189489e-01 1.477246e-01 -3.628245e+00 113 128 123
-1.189489e-01 1.477246e-01 -3.628245e+00 113 128 123
3.619776e-02 2.492264e-02 -3.578500e+00 113 126 134
-1.799397e+00 -1.655163e+00 -3.048981e+00 177 176 173
-8.556380e-01 -1.528007e+00 -3.110353e+00 32 34 33
-1.105689e+00 -1.475454e+00 -3.116189e+00 162 167 172
-1.752312e+00 -1.708332e+00 -3.029559e+00 172 172 172
-1.835654e+00 -1.628756e+00 -3.051431e+00 36 38 37
-1.248013e+00 -1.606397e+00 -3.075303e+00 165 166 170
-8.929901e-01 -1.464066e+00 -3.126678e+00 163 164 169
-9.263834e-01 -1.295900e+00 -3.171711e+00 172 176 179
-4.411725e-01 -3.814017e-01 -3.238490e+00 235 236 230
-1.336558e+00 -1.664568e+00 -3.055103e+00 153 157 156
-1.477548e+00 -1.631842e+00 -3.058231e+00 156 158 156
-1.442451e+00 -3.258170e-01 -3.752248e+00 198 196 177
-1.292128e+00 -1.466235e+00 -3.113191e+00 119 130 136
-8.545869e-01 -1.451767e+00 -3.128137e+00 108 118 122
4.244082e-01 1.140724e-02 -3.849443e+00 189 192 183
-1.060174e+00 -1.466130e+00 -3.115420e+00 106 120 129
-9.509295e-01 -1.304827e+00 -3.161688e+00 174 177 180
-1.015921e+00 -1.461327e+00 -3.121526e+00 103 117 118
-1.057796e+00 -1.080197e+00 -3.229191e+00 48 54 59
-8.588536e-01 -5.403643e-01 -3.689136e+00 145 145 111
-1.291294e+00 -1.474001e+00 -3.109913e+00 132 139 147
-7.055923e-01 -6.423545e-01 -3.570615e+00 128 132 134
-1.810442e+00 -1.632879e+00 -3.047612e+00 122 117 121
-6.550384e-01 -1.024361e+00 -3.564767e+00 197 199 180
-6.535221e-01 -1.024219e+00 -3.557077e+00 197 199 180
-8.417791e-01 -1.396421e+00 -3.137655e+00 109 123 126
-1.643564e-01 1.149088e-01 -3.619570e+00 56 78 95
-1.576461e-01 1.264401e-01 -3.622413e+00 72 75 85
-1.684896e+00 2.613144e-01 -4.035428e+00 162 165 148
-2.297353e+00 -2.205181e+00 -2.886211e+00 47 49 45
-2.296849e+00 -2.206119e+00 -2.882434e+00 47 49 45
-2.296210e+00 -2.202410e+00 -2.871705e+00 47 49 45
-2.209139e+00 -2.053364e+00 -2.939578e+00 140 152 151
-1.413550e+00 -1.729550e+00 -3.037533e+00 136 148 146
-2.012391e+00 -2.086094e+00 -2.928105e+00 51 54 56
-2.010429e+00 -2.082854e+00 -2.900895e+00 51 54 56
-2.012681e+00 -2.084691e+00 -2.912141e+00 51 54 56
-2.685663e+00 -2.109198e+00 -2.849456e+00 56 56 55
-1.732570e+00 -1.982596e+00 -2.957730e+00 55 57 54
-2.386900e+00 -2.015806e+00 -2.939318e+00 50 56 56
-2.386900e+00 -2.015806e+00 -2.939318e+00 50 56 56
-2.117934e+00 -1.899548e+00 -2.971097e+00 59 61 61
-1.828448e+00 -1.782032e+00 -3.023443e+00 56 58 62
-1.826950e+00 -1.781763e+00 -3.024944e+00 56 58 62
-1.589910e+00 -1.718196e+00 -3.041580e+00 56 58 55
-1.588696e+00 -1.718732e+00 -3.038902e+00 56 58 55
-1.738199e+00 -1.679426e+00 -3.050986e+00 144 156 154
-8.861987e-01 -1.577161e+00 -3.106487e+00 56 60 47
-1.901372e+00 -1.606451e+00 -3.050780e+00 60 61 58
-1.196313e+00 -1.514093e+00 -3.089081e+00 54 58 58
-1.252674e+00 -1.755776e+00 -3.042740e+00 57 59 56
3.109401e-01 -2.212289e+00 -2.863798e+00 115 121 126
-1.648314e+00 -1.903167e+00 -2.968972e+00 165 169 165
-1.648670e+00 -1.902800e+00 -2.970144e+00 165 169 165
-1.302220e+00 -1.685506e+00 -3.060117e+00 159 170 164
-1.086953e+00 -1.649317e+00 -3.064585e+00 166 172 168
-1.083129e+00 -1.648536e+00 -3.062320e+00 166 172 168
3.598953e-01 -2.175313e+00 -2.837394e+00 255 254 255
8.936895e-01 -2.074158e+00 -3.334788e+00 228 228 229
-2.387532e+00 -2.293960e+00 -2.880593e+00 51 51 52
-2.744419e+00 -2.286337e+00 -3.085991e+00 53 58 63
-1.817986e+00 -2.055586e+00 -2.925569e+00 51 53 49
-1.602653e+00 -1.966041e+00 -2.957773e+00 53 56 58
-1.601931e+00 -1.965173e+00 -2.957945e+00 53 56 58
-1.605182e+00 -1.968121e+00 -2.962565e+00 53 56 58
-7.269529e-01 -1.771646e+00 -3.049581e+00 49 52 57
-7.270918e-01 -1.771573e+00 -3.049178e+00 49 52 57
-1.953213e+00 -1.770753e+00 -3.001760e+00 64 66 65
-9.218920e-01 -1.417256e+00 -3.136180e+00 58 60 59
-2.114029e-01 -9.586937e-01 -3.206028e+00 179 181 169
-2.670633e+00 -2.345435e+00 -2.819736e+00 174 176 166
-2.501510e+00 -2.264742e+00 -2.854498e+00 184 184 178
-2.215413e+00 -2.159875e+00 -2.931198e+00 186 188 183
-2.111444e+00 -2.123333e+00 -2.928293e+00 182 184 178
-1.924526e+00 -2.036931e+00 -2.936242e+00 187 190 179
-1.875829e+00 -2.028926e+00 -2.935877e+00 185 188 181
-1.555048e+00 -1.949424e+00 -2.975527e+00 193 195 189
-2.356939e+00 -1.902798e+00 -2.957928e+00 189 191 185
-1.180789e+00 -1.767899e+00 -3.029566e+00 192 193 189
-1.180953e+00 -1.767331e+00 -3.031646e+00 192 193 189
-1.111671e+00 -1.640728e+00 -3.071360e+00 192 193 185
-1.931481e+00 -1.705933e+00 -3.025718e+00 195 196 186
-1.806740e+00 -1.655482e+00 -3.041543e+00 199 200 190
-1.869722e+00 -4.826140e-01 -3.385370e+00 62 67 68
-6.481547e-01 -2.547506e+00 -2.833078e+00 149 160 154
2.834660e-01 -2.195714e+00 -2.893068e+00 196 196 183
8.285739e-01 -1.916979e+00 -3.244883e+00 192 193 185
-2.197113e+00 -2.129544e+00 -2.905867e+00 135 146 147
-1.826476e+00 -2.002886e+00 -2.944729e+00 182 184 175
-2.274798e+00 -2.039939e+00 -2.933628e+00 193 196 187
-1.962862e+00 -1.974413e+00 -2.960587e+00 178 183 176
-1.607842e+00 -1.913199e+00 -2.974361e+00 188 189 180
-2.285046e+00 -1.982548e+00 -2.949613e+00 181 184 175
-2.562093e+00 -1.977998e+00 -2.953668e+00 186 189 182
-2.434991e+00 -1.925730e+00 -2.955195e+00 186 187 176
-2.029013e+00 -1.853458e+00 -2.970433e+00 191 191 184
-1.994801e+00 -1.740111e+00 -3.017172e+00 192 193 186
-1.796180e+00 -1.693077e+00 -3.034494e+00 63 64 64
-1.260744e+00 -1.498943e+00 -3.096447e+00 56 60 59
-1.890996e+00 -1.520711e+00 -3.081378e+00 190 193 185
-9.418583e-01 -1.325000e+00 -3.157892e+00 64 66 71
-1.438699e+00 -4.495595e-01 -3.651871e+00 23 25 33
-7.250795e-01 5.646613e-01 -3.366770e+00 125 146 173
-2.105417e+00 -2.199553e+00 -2.892077e+00 57 58 63
-2.214069e+00 -2.103935e+00 -2.910918e+00 126 137 139
-2.449961e+00 -2.068562e+00 -2.919837e+00 180 181 173
-2.527081e+00 -2.057294e+00 -2.918928e+00 178 183 177
-1.432841e+00 -1.929279e+00 -2.988409e+00 50 57 65
-2.534267e+00 -2.037834e+00 -2.989442e+00 56 61 65
-6.851713e-01 -1.778160e+00 -3.042188e+00 161 172 168
-1.167737e+00 -1.819474e+00 -3.020691e+00 138 151 150
-2.005263e+00 -1.833611e+00 -2.970177e+00 129 140 136
-1.289660e+00 -1.724595e+00 -3.037285e+00 59 60 62
-1.312913e+00 -1.706471e+00 -3.042329e+00 193 197 189
-1.992691e+00 -1.704940e+00 -3.021869e+00 134 146 140
-1.985617e+00 -1.675137e+00 -3.033249e+00 188 191 184
-1.391639e+00 -1.608341e+00 -3.082159e+00 169 174 170
-7.845020e-01 -1.486503e+00 -3.115816e+00 118 131 130
-1.011140e+00 -1.447669e+00 -3.126807e+00 136 147 149
-1.847254e+00 -1.526312e+00 -3.077208e+00 196 199 192
-1.405886e+00 -8.105136e-01 -3.301115e+00 150 163 156
-5.831749e-01 -4.666215e-02 -3.296581e+00 53 56 62
-8.320473e-01 5.107468e-01 -3.449380e+00 148 152 153
2.808249e-01 -2.362317e+00 -2.732556e+00 186 184 180
-2.428704e+00 -2.333126e+00 -2.850541e+00 53 58 59
9.797164e-01 -2.025857e+00 -3.361431e+00 231 232 220
-2.648811e+00 -2.200180e+00 -2.788124e+00 225 223 190
-1.862200e+00 -2.099204e+00 -2.897264e+00 49 53 64
-1.884698e+00 -2.059246e+00 -2.929042e+00 60 62 70
-1.848429e+00 -2.039916e+00 -2.926322e+00 61 66 70
-1.453529e+00 -1.950253e+00 -2.970112e+00 173 178 176
-1.492751e+00 -1.951420e+00 -2.974066e+00 169 177 169
-1.286090e+00 -1.898803e+00 -2.997499e+00 184 189 184
-2.546241e+00 -2.026369e+00 -2.926103e+00 177 180 171
-1.638307e+00 -1.900114e+00 -2.978352e+00 150 159 157
-1.631655e+00 -1.873568e+00 -2.990259e+00 172 177 170
-1.966299e+00 -1.903726e+00 -2.961392e+00 125 135 134
-2.376006e+00 -1.928309e+00 -2.955156e+00 70 70 69
-1.121995e+00 -1.784452e+00 -3.026074e+00 173 179 175
-1.887922e+00 -1.843291e+00 -2.992498e+00 174 179 175
-1.292963e+00 -1.724666e+00 -3.036846e+00 57 58 60
-1.977396e+00 -1.759658e+00 -3.020722e+00 66 67 75
-1.307561e+00 -1.679163e+00 -3.056255e+00 145 154 149
-1.332906e+00 -1.641664e+00 -3.055927e+00 65 65 73
-1.332906e+00 -1.641664e+00 -3.055927e+00 65 65 73
-9.825097e-01 -1.423482e+00 -3.138027e+00 172 178 173
-1.064384e+00 -1.431921e+00 -3.128190e+00 175 181 179
-8.425948e-01 -1.395486e+00 -3.141002e+00 127 142 138
-2.576111e-01 -6.634362e-01 -3.196199e+00 66 80 109
-6.901757e-01 6.297699e-01 -3.414642e+00 140 194 241
-4.413177e-01 -2.857477e+00 -2.974472e+00 29 31 49
2.574311e-01 -2.301712e+00 -2.870712e+00 112 111 112
-6.348347e-01 -2.319942e+00 -2.883299e+00 149 159 158
-2.135037e+00 -2.212786e+00 -2.857173e+00 54 56 72
-2.132338e+00 -2.188663e+00 -2.882595e+00 156 159 135
-2.132338e+00 -2.188663e+00 -2.882595e+00 156 159 135
-1.854697e+00 -2.071975e+00 -2.911585e+00 149 150 131
-1.854743e+00 -2.072075e+00 -2.913825e+00 149 150 131
8.471240e-01 -1.759822e+00 -3.402084e+00 158 160 165
-2.474743e+00 -2.061268e+00 -2.917420e+00 133 144 140
-2.484759e+00 -2.064241e+00 -2.960733e+00 133 144 140
-2.452941e+00 -2.040055e+00 -2.924730e+00 52 56 66
-1.827616e+00 -1.967470e+00 -2.952622e+00 174 177 172
-1.838901e+00 -1.942179e+00 -2.953664e+00 172 174 163
-2.278299e+00 -1.942060e+00 -2.953876e+00 57 57 67
-2.431589e+00 -1.900971e+00 -2.967992e+00 136 146 145
-1.355509e+00 -1.786183e+00 -3.015143e+00 140 151 148
-1.677252e+00 -1.787909e+00 -3.007039e+00 178 180 170
-1.701358e+00 -1.759864e+00 -3.022555e+00 142 153 150
-1.729875e+00 -1.699792e+00 -3.034329e+00 136 149 149
-1.282339e+00 -1.643155e+00 -3.063450e+00 180 185 179
-1.007534e+00 -1.601344e+00 -3.082696e+00 170 180 173
-1.987878e+00 -1.532446e+00 -3.075629e+00 145 157 156
-1.253094e+00 -1.407018e+00 -3.136380e+00 130 144 144
-3.121290e-01 -6.819018e-01 -3.200225e+00 234 237 231
-9.004810e-01 -2.421607e+00 -2.847015e+00 134 144 143
-2.411708e+00 -2.325150e+00 -2.858908e+00 138 142 120
-1.554632e+00 -2.231266e+00 -2.881120e+00 166 176 177
-2.657738e+00 -2.206665e+00 -2.825293e+00 252 250 209
-1.910173e+00 -2.020315e+00 -2.920281e+00 139 149 149
-1.659863e+00 -1.823101e+00 -2.996470e+00 177 180 169
-1.694126e+00 -1.782694e+00 -3.010075e+00 144 153 149
-6.550210e-01 -1.655524e+00 -3.078668e+00 158 173 170
-1.094747e+00 -1.636892e+00 -3.070805e+00 148 158 152
-9.822154e-01 -1.616956e+00 -3.083154e+00 152 158 154
-8.307038e-01 -1.456249e+00 -3.138827e+00 136 147 141
-2.004142e+00 -1.555495e+00 -3.068395e+00 141 152 145
-1.409687e+00 -7.095153e-01 -3.336418e+00 177 188 172
-2.082694e+00 -3.800464e-01 -3.396757e+00 146 161 154
-1.198332e+00 -2.367032e+00 -2.852127e+00 176 187 181
-2.208978e+00 -2.337442e+00 -2.852454e+00 77 87 108
-1.131581e+00 -2.211725e+00 -2.898835e+00 157 174 162
-2.687416e+00 -2.221731e+00 -2.888052e+00 129 118 146
-1.623824e+00 -1.903224e+00 -2.971465e+00 148 154 152
-1.472358e+00 -1.649263e+00 -3.050993e+00 144 154 155
-7.120269e-01 -1.564261e+00 -3.105836e+00 123 138 135
-1.096302e+00 -1.465143e+00 -3.118156e+00 158 166 162
-1.823622e+00 -1.100366e+00 -3.202859e+00 127 144 143
-1.182990e+00 -2.115766e+00 -2.925020e+00 123 135 137
-2.004490e+00 -1.676412e+00 -3.014359e+00 151 162 160
-1.996368e+00 -1.048196e+00 -3.205068e+00 109 114 122
-2.090382e+00 -4.378117e-01 -3.386588e+00 149 160 151
-6.847415e-01 2.360480e-01 -3.341668e+00 123 121 124
7.904418e-01 -2.046636e+00 -3.305494e+00 187 186 190
7.904418e-01 -2.046636e+00 -3.305494e+00 187 186 190
-2.005190e+00 -2.240745e+00 -2.864788e+00 158 172 172
-1.141757e+00 -1.474947e+00 -3.113195e+00 72 75 83
2.532970e-01 -6.794537e-01 -3.301426e+00 41 45 48
8.730588e-01 -1.787215e+00 -3.291791e+00 92 95 106
-1.910848e+00 -1.815891e+00 -2.992487e+00 162 168 167
-1.721798e+00 -1.688920e+00 -3.040612e+00 131 142 144
-7.596824e-01 -1.824252e+00 -3.034421e+00 141 155 155
-1.384748e+00 -1.617742e+00 -3.067431e+00 149 154 153
-1.549596e+00 -1.982601e+00 -2.958358e+00 196 199 193
-1.191114e+00 -1.013505e+00 -3.248926e+00 125 137 133
-1.678418e+00 -1.693152e+00 -3.038055e+00 186 186 179
-6.655642e-01 -1.867142e+00 -3.019363e+00 140 147 148
-8.156056e-01 -1.579928e+00 -3.097954e+00 49 48 57
-1.047208e+00 -1.292201e+00 -3.162854e+00 138 152 155
-8.942586e-01 -1.283318e+00 -3.168638e+00 133 147 148
5.573151e-02 4.518803e-02 -3.574892e+00 58 62 74
-1.819854e+00 -1.512233e+00 -3.076944e+00 130 140 142
-1.028732e+00 -1.419057e+00 -3.135367e+00 181 185 177
-9.558662e-01 -1.272464e+00 -3.173345e+00 135 149 148
7.214489e-02 -7.249088e-02 -3.566281e+00 162 165 155
-1.868684e+00 -1.883754e+00 -2.972506e+00 161 162 156
-1.168795e+00 -1.796851e+00 -3.023017e+00 137 146 148
-1.155670e+00 -1.782584e+00 -3.026944e+00 180 183 178
-1.787073e+00 -1.631552e+00 -3.046569e+00 142 154 157
-1.312817e+00 -1.736498e+00 -3.034744e+00 187 186 182
-1.548475e+00 -1.527468e+00 -3.088455e+00 141 152 155
-7.663110e-01 -1.562313e+00 -3.096471e+00 127 143 143
-1.528798e+00 -1.940165e+00 -2.971115e+00 168 172 173
-1.655160e+00 -1.870537e+00 -2.986536e+00 128 139 141
-1.302539e+00 -1.546777e+00 -3.084840e+00 57 55 68
-1.118195e+00 -1.325803e+00 -3.154832e+00 138 153 156
-1.078576e+00 -1.310441e+00 -3.165430e+00 139 153 156
-1.360622e+00 -7.557899e-01 -3.317873e+00 141 152 146
-1.117012e+00 -2.209271e+00 -2.903745e+00 110 123 128
-1.318407e+00 -1.968339e+00 -2.972158e+00 114 127 133
-1.033106e+00 -1.634776e+00 -3.077539e+00 110 124 124
-1.017133e+00 -1.638145e+00 -3.071144e+00 131 140 144
-1.097402e+00 -1.464854e+00 -3.118840e+00 145 151 152
-1.148004e+00 -1.229263e+00 -3.188035e+00 163 176 177
-8.828582e-01 -1.213922e+00 -3.193284e+00 120 136 135
-8.833251e-01 6.543088e-01 -3.305480e+00 244 243 209
-1.041710e+00 -1.784975e+00 -3.033964e+00 138 144 148
-6.976410e-01 -1.766222e+00 -3.047045e+00 150 163 158
-1.489697e+00 -1.491897e+00 -3.097475e+00 127 137 139
-7.767122e-01 -1.521811e+00 -3.109709e+00 111 133 142
-1.047447e+00 -1.439492e+00 -3.127568e+00 128 142 144
-1.010948e+00 -1.428327e+00 -3.131835e+00 129 138 139
-9.796641e-01 -1.281755e+00 -3.173348e+00 135 149 151
-6.134334e-01 1.323228e-02 -3.065678e+00 84 75 70
-1.301821e+00 -1.669895e+00 -3.053594e+00 164 175 169
-1.301821e+00 -1.669895e+00 -3.053594e+00 164 175 169
-7.978200e-01 -1.781602e+00 -3.040135e+00 111 122 129
-1.048157e+00 -1.653425e+00 -3.069506e+00 122 131 130
-8.854934e-01 -1.289361e+00 -3.170721e+00 119 133 133
-1.303596e+00 -1.052819e+00 -3.230350e+00 116 129 136
-1.737736e+00 -8.728634e-01 -3.275316e+00 128 143 144
-1.486044e+00 -8.337301e-01 -3.292380e+00 119 132 133
-1.568691e+00 -7.765752e-01 -3.306570e+00 118 133 134
-1.607032e+00 -6.428162e-01 -3.342929e+00 62 72 73
1.067037e-03 -1.029680e+00 -3.097114e+00 154 175 204
-5.786448e-01 -4.770286e-03 -3.065658e+00 57 46 46
-5.682762e-01 4.359683e-03 -3.086789e+00 57 46 46
-1.482091e+00 -1.494170e+00 -3.098493e+00 118 132 132
-1.158353e+00 -1.319467e+00 -3.159804e+00 163 179 181
-1.158353e+00 -1.319467e+00 -3.159804e+00 163 179 181
-1.129346e+00 -9.704511e-01 -3.257535e+00 110 122 121
-1.421798e+00 -7.055001e-01 -3.330269e+00 113 129 123
-1.477312e+00 -6.692175e-01 -3.341965e+00 192 201 174
-7.403488e-02 -1.338215e-01 -3.614920e+00 106 108 104
7.052648e-02 7.616708e-02 -3.588926e+00 57 62 87
6.461096e-01 -1.523404e+00 -4.125113e+00 20 37 57
-6.090971e-01 -2.371099e+00 -2.883178e+00 135 147 155
-1.230190e+00 -1.703960e+00 -3.044799e+00 46 48 60
-1.061500e+00 -1.029592e+00 -3.233598e+00 147 162 165
9.158007e-01 -1.761005e+00 -3.396689e+00 207 207 209
-1.660605e+00 -1.723243e+00 -3.034773e+00 33 34 46
-1.817906e+00 -1.544943e+00 -3.076403e+00 179 178 176
-2.066445e-01 -2.333674e+00 -3.481952e+00 19 27 39
-1.682266e+00 -1.763565e+00 -3.018700e+00 160 162 155
-1.396719e+00 -1.924581e+00 -2.980234e+00 51 53 66
-1.009772e+00 -1.741065e+00 -3.033272e+00 56 59 72
-1.036845e+00 -1.610209e+00 -3.085838e+00 183 185 182
-6.715241e-01 -5.875028e-01 -3.538671e+00 73 82 81
1.050271e+00 -1.916283e+00 -3.317718e+00 196 200 194
1.657871e-02 -4.601419e-01 -3.458101e+00 146 148 135
1.657871e-02 -4.601419e-01 -3.458101e+00 146 148 135
-9.814157e-01 5.395619e-01 -3.814215e+00 167 170 161
-9.814157e-01 5.395619e-01 -3.814215e+00 167 170 161
-1.039416e+00 -1.461003e+00 -3.125362e+00 134 147 156
-7.688712e-01 -1.588232e+00 -3.091546e+00 129 142 148
-7.220495e-01 -6.025663e-01 -3.586679e+00 171 171 156
-1.148182e+00 -1.812204e+00 -3.010725e+00 124 139 144
-8.914557e-01 -2.003010e+00 -2.963208e+00 115 133 142
-8.914557e-01 -2.003010e+00 -2.963208e+00 115 133 142
-1.550096e+00 -1.121830e+00 -3.193893e+00 115 130 135
-1.633267e+00 -9.781925e-01 -3.231164e+00 115 129 131
-1.627860e+00 -6.435556e-01 -3.303266e+00 148 157 152
-1.024898e+00 -1.218290e+00 -3.187091e+00 129 144 148
-1.024710e+00 -1.218308e+00 -3.187645e+00 129 144 148
9.825500e-01 -1.831913e+00 -3.282746e+00 56 74 124
-9.666800e-01 -2.088536e+00 -2.938500e+00 118 126 137
-9.488707e-01 -2.086124e+00 -2.937905e+00 124 138 147
-1.699287e+00 -1.316354e+00 -3.135896e+00 111 124 131
-1.271941e+00 -1.667464e+00 -3.049930e+00 117 127 139
-1.251640e+00 -1.661475e+00 -3.058133e+00 133 146 150
-6.085084e-01 -2.091271e+00 -2.943012e+00 109 125 132
-1.323966e+00 -1.171810e+00 -3.183730e+00 120 136 141
-1.331409e+00 -1.075443e+00 -3.217616e+00 98 117 124
-1.303985e+00 -1.073885e+00 -3.216519e+00 123 133 133
-8.250805e-01 -1.452347e+00 -3.125799e+00 124 139 140
-8.250805e-01 -1.452347e+00 -3.125799e+00 124 139 140
-1.038795e+00 -1.203768e+00 -3.191437e+00 134 145 152
-1.058959e+00 -1.046222e+00 -3.226693e+00 115 131 133
-1.137102e+00 -9.683737e-01 -3.257639e+00 175 186 178
-7.167501e-01 -2.418368e+00 -2.849035e+00 146 159 167
-1.113744e+00 -1.948598e+00 -2.975680e+00 156 170 173
-1.873829e+00 -1.147050e+00 -3.186217e+00 114 128 136
-9.306648e-01 -2.078059e+00 -2.942044e+00 128 141 153
-1.059608e+00 -1.803972e+00 -3.022264e+00 125 141 151
-1.055321e+00 -1.791627e+00 -3.023821e+00 137 151 159
-6.380436e-01 -1.943404e+00 -2.985709e+00 130 143 152
-7.455002e-01 -1.501597e+00 -3.114101e+00 131 143 151
-5.880320e-02 -1.267149e-01 -3.644548e+00 152 165 136
-1.912673e+00 -1.522153e+00 -3.079210e+00 117 113 130
-1.407001e+00 -1.794690e+00 -3.014947e+00 123 131 142
-9.004582e-01 -2.040193e+00 -2.954201e+00 118 133 141
-7.210778e-01 -1.954859e+00 -2.982260e+00 202 208 175
-6.210319e-01 -2.331698e+00 -2.876190e+00 156 168 168
-6.362497e-01 -2.139664e+00 -2.930514e+00 175 191 161
-1.916701e+00 -4.900282e-01 -3.345091e+00 64 72 87
-6.821407e-01 -5.693516e-01 -3.454699e+00 177 182 168
-6.821407e-01 -5.693516e-01 -3.454699e+00 177 182 168
-3.634822e-01 -9.014340e-02 -3.605974e+00 64 70 66
-1.576836e-01 -1.181910e-01 -3.664136e+00 184 187 168
-7.062202e-01 5.926066e-01 -3.428524e+00 130 159 195
-6.854033e-01 6.044624e-01 -3.387007e+00 177 235 255
-1.513441e-02 1.908158e-01 -3.705186e+00 98 115 121
-4.860614e-01 -5.778797e-02 -3.361694e+00 144 146 143
8.477206e-01 -2.165698e+00 -3.320922e+00 228 228 233
-2.868525e+00 -2.426334e+00 -2.792369e+00 58 59 53
-2.861629e+00 -2.438967e+00 -2.790891e+00 58 59 53
-2.858124e+00 -2.426682e+00 -2.781087e+00 58 59 53
-3.291040e+00 -2.599320e+00 -2.704346e+00 54 54 51
-3.377458e+00 -2.410130e+00 -2.764097e+00 67 64 59
-1.910763e+00 -1.974246e+00 -2.931145e+00 134 148 148
-3.027094e+00 -2.099465e+00 -2.887604e+00 55 56 51
-2.389594e+00 -2.017923e+00 -2.953081e+00 50 56 56
-1.321267e+00 9.414385e-01 -4.115272e+00 3 4 6
-3.147539e+00 -2.291278e+00 -2.826718e+00 53 51 54
-3.045783e+00 -2.477380e+00 -2.773678e+00 54 54 54
-5.646350e-01 -1.040989e+00 -3.699284e+00 190 192 171
-2.951576e+00 -2.517680e+00 -2.759991e+00 55 56 53
1.055842e+00 -2.044380e+00 -3.417606e+00 232 229 220
1.046056e+00 -2.034522e+00 -3.392528e+00 232 229 220
-4.903394e-01 -4.838553e-02 -3.305352e+00 49 55 66
-3.420451e+00 -2.626648e+00 -2.701661e+00 185 182 176
-2.970030e+00 -2.455913e+00 -2.778261e+00 171 172 166
-2.969970e+00 -2.455866e+00 -2.781034e+00 171 172 166
-2.906414e+00 -2.108202e+00 -2.883235e+00 183 184 173
-2.906414e+00 -2.108202e+00 -2.883235e+00 183 184 173
-3.143308e+00 -2.096718e+00 -2.870108e+00 56 57 59
-3.143659e+00 -2.096359e+00 -2.870446e+00 56 57 59
-2.509057e+00 -2.006831e+00 -2.930449e+00 58 60 59
-6.544056e-01 -2.606749e+00 -2.798852e+00 133 144 145
-2.994722e+00 -2.552128e+00 -2.749460e+00 183 184 177
-3.276272e+00 -2.491565e+00 -2.756888e+00 176 178 175
-3.024544e+00 -2.442903e+00 -2.789467e+00 61 60 65
-2.781947e+00 -2.386774e+00 -2.808101e+00 181 181 169
-2.780260e+00 -2.387145e+00 -2.804117e+00 181 181 169
-3.125215e+00 -2.241477e+00 -2.836421e+00 64 64 72
2.645394e+00 -1.401798e+00 -4.734115e+00 146 116 78
-6.985632e-01 3.141410e-01 -3.451294e+00 173 174 159
-7.152425e-01 -2.786372e+00 -2.717977e+00 139 149 150
-3.397546e+00 -2.667294e+00 -2.692302e+00 127 134 142
-3.428560e+00 -2.672452e+00 -2.686223e+00 181 182 177
-3.110937e+00 -2.441600e+00 -2.774939e+00 182 182 180
-2.722043e+00 -2.376451e+00 -2.808608e+00 181 182 177
-3.042476e+00 -2.352530e+00 -2.808122e+00 190 192 186
-3.073721e+00 -2.347906e+00 -2.802752e+00 61 59 62
-2.838175e+00 -2.278029e+00 -2.839150e+00 189 186 180
-2.855092e+00 -2.219363e+00 -2.862924e+00 185 186 179
-3.111739e+00 -2.178199e+00 -2.864366e+00 141 153 154
-3.147710e+00 -2.177575e+00 -2.851192e+00 132 145 145
-3.102731e+00 -2.138595e+00 -2.877195e+00 174 177 169
-3.163063e+00 -2.147053e+00 -2.861896e+00 177 181 175
-2.933914e+00 -2.069351e+00 -2.900475e+00 185 188 180
-3.200761e+00 -2.071337e+00 -2.893713e+00 186 188 183
5.823563e-01 -1.212932e+00 -3.617571e+00 22 27 53
6.486213e-01 -1.079599e+00 -3.629142e+00 96 97 103
-3.365274e+00 -2.658768e+00 -2.695347e+00 157 159 158
-3.020325e+00 -2.580997e+00 -2.742593e+00 171 174 167
-2.861742e+00 -2.531822e+00 -2.753299e+00 163 167 168
-2.964182e+00 -2.494526e+00 -2.768456e+00 59 59 67
-2.639681e+00 -2.440359e+00 -2.799155e+00 175 180 174
-3.089507e+00 -2.457935e+00 -2.772304e+00 64 61 79
-2.747500e+00 -2.410233e+00 -2.846836e+00 60 59 66
-3.016662e+00 -2.370920e+00 -2.804010e+00 132 139 138
-1.840966e+00 -2.109722e+00 -2.909923e+00 177 183 176
-2.901698e+00 -2.072476e+00 -2.901690e+00 129 139 140
-2.713779e+00 -2.446853e+00 -2.792478e+00 61 62 72
-2.745406e+00 -2.407652e+00 -2.844435e+00 61 59 69
-2.710862e+00 -2.395506e+00 -2.856120e+00 60 61 64
-3.034548e+00 -2.381487e+00 -2.807079e+00 135 145 145
-3.032487e+00 -2.379824e+00 -2.805197e+00 135 145 145
-3.012367e+00 -2.314783e+00 -2.821238e+00 183 185 178
-3.052327e+00 -2.272736e+00 -2.838117e+00 141 148 152
-3.078134e+00 -2.212494e+00 -2.847959e+00 137 145 147
-3.062721e+00 -2.203238e+00 -2.857102e+00 182 184 171
-1.366559e+00 -1.616364e+00 -3.067972e+00 175 176 170
8.418989e-01 -2.280919e+00 -3.262143e+00 200 202 205
-3.036572e+00 -2.304537e+00 -2.823682e+00 128 136 142
-6.809363e-01 5.550753e-01 -3.410719e+00 116 141 179
9.265190e-01 -2.425152e+00 -3.199701e+00 223 227 221
1.032430e+00 -1.962322e+00 -3.339293e+00 184 187 188
3.968116e-01 -1.155041e+00 -3.583307e+00 198 201 191
8.466087e-01 -2.283974e+00 -3.250506e+00 179 183 200
9.831431e-01 -2.488111e+00 -3.179558e+00 219 221 218
9.288146e-01 -2.331682e+00 -3.224762e+00 216 220 227
-2.485319e+00 -2.201414e+00 -2.914429e+00 130 140 141
-2.382280e+00 -2.290537e+00 -2.851900e+00 42 41 39
-2.512243e+00 -2.006953e+00 -2.926010e+00 44 44 46
-2.435117e+00 -2.260695e+00 -2.862065e+00 179 175 166
-3.075242e+00 -2.174883e+00 -2.860708e+00 170 166 160
-2.743088e+00 -2.183325e+00 -2.867964e+00 158 157 145
-2.721758e+00 -2.203440e+00 -2.863446e+00 53 57 68
-9.813533e-01 -1.424036e+00 -3.131081e+00 179 181 172
-1.927297e+00 -2.062490e+00 -2.927132e+00 60 60 63
-1.674092e+00 -1.829129e+00 -2.968998e+00 142 148 148
9.582884e-01 -2.431830e+00 -3.201336e+00 210 203 206
-7.117376e-01 -2.503099e+00 -2.836638e+00 160 165 158
8.449410e-01 -2.280643e+00 -3.247456e+00 116 124 158
9.590484e-01 -2.430763e+00 -3.185790e+00 149 161 183
1.888368e+00 1.572420e-02 -5.162959e+00 168 125 80
-6.625496e-01 -2.681474e+00 -2.801508e+00 148 157 156
-8.640357e-01 -2.659251e+00 -2.812943e+00 145 153 156
-5.908936e-01 -2.597294e+00 -2.814293e+00 172 181 162
-6.505992e-01 -2.535516e+00 -2.829152e+00 151 160 165
-4.011945e+00 -2.458473e+00 -2.743282e+00 66 66 65
-3.913755e+00 -2.832733e+00 -2.622005e+00 183 193 192
-3.698906e+00 -2.728298e+00 -2.649814e+00 164 174 177
-3.698906e+00 -2.728298e+00 -2.649814e+00 164 174 177
-2.168950e+00 -2.203309e+00 -2.902551e+00 66 74 73
-3.504215e+00 -3.914299e+00 -2.281369e+00 152 170 172
-3.808631e+00 -2.835200e+00 -2.611641e+00 65 71 64
-3.333207e+00 -3.986713e+00 -2.280115e+00 138 156 158
-3.886116e+00 -2.933730e+00 -2.597172e+00 191 201 196
-3.954746e+00 -2.584605e+00 -2.696288e+00 188 195 196
-3.954897e+00 -2.581909e+00 -2.693411e+00 188 195 196
-3.901615e+00 -2.512994e+00 -2.707705e+00 185 190 191
-3.901140e+00 -2.514419e+00 -2.713753e+00 185 190 191
-4.031065e+00 -2.533144e+00 -2.703667e+00 182 189 189
-3.095440e+00 -2.234088e+00 -2.834125e+00 193 203 193
-3.076231e+00 -2.605536e+00 -2.720050e+00 70 77 81
-3.875989e+00 -2.828602e+00 -2.631394e+00 172 183 181
-3.624486e+00 -2.708316e+00 -2.670705e+00 149 160 162
-3.623180e+00 -2.709871e+00 -2.664157e+00 149 160 162
-3.690426e+00 -2.723692e+00 -2.658507e+00 146 159 163
-3.715410e+00 -2.571934e+00 -2.705612e+00 140 150 153
-3.842267e+00 -2.481092e+00 -2.724492e+00 181 191 191
-3.018145e+00 -2.344368e+00 -2.810767e+00 150 162 156
-3.744894e+00 -2.580352e+00 -2.712554e+00 144 153 155
-3.744646e+00 -2.582116e+00 -2.705259e+00 144 153 155
-1.795052e+00 -1.690744e+00 -3.032603e+00 44 44 52
-8.475699e-01 -1.479696e+00 -3.123802e+00 168 171 176
-1.295698e+00 -1.722480e+00 -3.037041e+00 40 38 51
-9.389966e-01 -1.322167e+00 -3.165760e+00 38 42 48
8.913325e-01 -1.904694e+00 -3.442757e+00 165 164 153
8.913325e-01 -1.904694e+00 -3.442757e+00 165 164 153
-1.735982e+00 -1.680086e+00 -3.053338e+00 144 156 154
1.292077e+00 -2.575706e+00 -3.241255e+00 225 223 219
-5.807485e-01 -1.057509e+00 -3.590607e+00 190 192 171
7.797095e-01 -2.180185e+00 -3.262975e+00 230 230 230
-3.577346e+00 -2.666881e+00 -2.687131e+00 163 160 150
-3.419266e+00 -2.628285e+00 -2.702329e+00 185 182 176
-3.491196e+00 -2.460673e+00 -2.746025e+00 183 180 172
-3.491043e+00 -2.460959e+00 -2.746930e+00 183 180 172
7.067991e-01 -1.904408e+00 -3.386264e+00 216 217 212
1.158477e+00 -2.761487e+00 -3.131176e+00 142 142 144
1.153662e+00 -2.761966e+00 -3.122925e+00 142 142 144
1.281382e+00 -2.713142e+00 -3.153466e+00 165 163 166
1.382054e+00 -2.596521e+00 -3.231762e+00 110 108 109
-3.456234e+00 -2.637626e+00 -2.697568e+00 55 54 59
6.936596e-01 -1.844099e+00 -3.414785e+00 216 219 216
1.329870e+00 -2.596211e+00 -3.223790e+00 221 218 202
1.205911e+00 -2.569828e+00 -3.230234e+00 27 28 50
-1.911427e+00 -1.814781e+00 -3.005884e+00 166 173 163
-3.142662e+00 -2.210338e+00 -2.851348e+00 192 192 185
9.871461e-01 -1.753160e+00 -3.385281e+00 193 195 182
-1.339398e+00 -1.664696e+00 -3.057252e+00 182 187 181
-1.329483e+00 -1.637313e+00 -3.059826e+00 58 61 69
1.260981e+00 -2.721099e+00 -3.143673e+00 141 139 157
1.259004e+00 -2.719667e+00 -3.135024e+00 141 139 157
1.020518e+00 -2.743699e+00 -3.161472e+00 222 221 216
-3.591913e+00 -2.683400e+00 -2.680389e+00 132 134 133
8.970387e-01 -2.264340e+00 -3.287359e+00 67 65 107
-3.674476e+00 -2.561070e+00 -2.709345e+00 145 146 148
-3.059856e+00 -2.394581e+00 -2.804238e+00 141 147 151
-3.025141e+00 -2.337104e+00 -2.821487e+00 140 148 150
-3.135503e+00 -2.143265e+00 -2.860993e+00 177 179 176
-2.037949e+00 -1.622106e+00 -3.049839e+00 119 131 131
-3.837357e+00 -7.432335e-01 -3.203846e+00 147 156 151
-4.806970e-01 -2.778715e+00 -2.934247e+00 28 28 37
-2.409770e+00 -2.273342e+00 -2.855606e+00 65 64 80
1.148423e+00 -2.780209e+00 -3.127127e+00 143 142 148
-3.445918e+00 -2.584426e+00 -2.711341e+00 65 60 69
-3.470380e+00 -2.507905e+00 -2.734264e+00 148 147 119
-3.470645e+00 -2.507650e+00 -2.733295e+00 148 147 119
-1.654018e+00 -1.872244e+00 -2.983208e+00 148 153 146
-3.544447e+00 -2.635057e+00 -2.683611e+00 135 136 131
2.672752e-01 -6.678419e-01 -3.330065e+00 41 45 48
1.538029e-01 -5.470715e-01 -3.530604e+00 169 173 160
1.538029e-01 -5.470715e-01 -3.530604e+00 169 173 160
-1.293813e+00 -1.490819e+00 -3.109784e+00 195 196 192
-3.124853e+00 -2.235558e+00 -2.846641e+00 50 47 61
-7.152517e-01 -2.792532e+00 -2.731844e+00 146 154 156
-2.516988e+00 -2.032725e+00 -2.918399e+00 40 39 45
-1.912924e+00 -2.014397e+00 -2.935504e+00 130 138 140
-3.073527e+00 -2.241303e+00 -2.857900e+00 133 133 134
-2.487769e+00 -2.046722e+00 -2.916931e+00 164 167 165
-1.470813e+00 -1.689429e+00 -3.045511e+00 124 137 138
-2.702195e+00 -2.425661e+00 -2.801012e+00 147 143 118
-2.702195e+00 -2.425661e+00 -2.801012e+00 147 143 118
-2.342686e+00 -1.862897e+00 -2.968986e+00 124 131 137
-1.803202e+00 -1.982038e+00 -2.943515e+00 43 43 44
-1.533265e+00 -1.959895e+00 -2.955801e+00 143 153 155
-1.346084e+00 -1.622646e+00 -3.063881e+00 47 46 51
3.584148e-01 -3.381752e+00 -2.918947e+00 161 155 132
-1.482521e+00 -1.668868e+00 -3.051478e+00 142 153 154
-1.109246e+00 -1.506740e+00 -3.101154e+00 60 65 69
4.845018e-01 -3.338531e+00 -2.935485e+00 76 63 112
4.845018e-01 -3.338531e+00 -2.935485e+00 76 63 112
2.490952e-01 -3.209965e+00 -2.793241e+00 41 45 90
2.621217e-01 -2.253960e+00 -2.890862e+00 184 185 168
4.087484e-01 -3.361256e+00 -2.927673e+00 158 150 112
4.874885e-01 -3.327237e+00 -2.936354e+00 94 85 114
-2.602019e-01 -2.583258e+00 -3.153376e+00 146 149 147
-1.042525e+00 -1.483113e+00 -3.116379e+00 207 207 200
-1.318473e+00 -1.681771e+00 -3.052306e+00 136 149 158
-7.531664e-01 6.332877e-01 -3.411389e+00 140 160 165
3.448235e-01 -2.300061e+00 -2.759492e+00 150 147 169
-4.482109e+00 -2.908540e+00 -2.689538e+00 134 152 153
-9.302402e-01 -4.089369e+00 -2.731334e+00 204 209 189
-2.208759e+00 -2.056525e+00 -2.926183e+00 141 157 155
-4.242424e+00 -2.605369e+00 -2.683597e+00 64 69 73
-1.746826e+00 -1.960662e+00 -2.958188e+00 62 69 69
1.285810e+00 -2.562951e+00 -3.274261e+00 225 225 223
1.033643e+00 -2.676738e+00 -3.151853e+00 226 228 222
1.033076e+00 -2.672115e+00 -3.163512e+00 226 228 222
-1.930161e-01 -8.409223e-01 -3.598004e+00 13 11 12
-4.000129e+00 -2.473076e+00 -2.715099e+00 66 66 65
-4.509098e+00 -2.666384e+00 -2.645696e+00 65 66 66
-3.392554e+00 -5.054021e+00 -2.266759e+00 46 46 55
-3.547735e+00 -4.689842e+00 -2.346915e+00 48 50 47
1.173942e+00 -2.631878e+00 -3.180855e+00 222 223 220
-1.251354e+00 -1.758186e+00 -3.030081e+00 61 70 68
-3.130301e+00 -2.300233e+00 -2.816576e+00 68 70 69
-4.485774e+00 -2.705329e+00 -2.581535e+00 71 71 69
-2.969200e+00 -4.893514e+00 -2.325252e+00 42 44 49
-2.943982e+00 -4.836889e+00 -2.328307e+00 201 206 199
-2.943982e+00 -4.836889e+00 -2.328307e+00 201 206 199
-3.111573e+00 -4.907448e+00 -2.302109e+00 191 202 203
-2.791278e+00 -4.771843e+00 -2.352251e+00 205 206 199
2.523718e-01 -3.450392e+00 -2.901566e+00 204 207 195
6.243818e-01 -1.155023e+00 -3.667086e+00 185 193 193
-9.210998e-01 -1.419126e+00 -3.068616e+00 67 73 69
-3.003611e+00 -4.825878e+00 -2.333633e+00 54 55 50
-3.003611e+00 -4.825878e+00 -2.333633e+00 54 55 50
6.907091e-01 -3.315202e+00 -2.951057e+00 177 179 176
6.900747e-01 -3.315132e+00 -2.950049e+00 177 179 176
-4.127053e+00 -4.897811e+00 -2.345248e+00 40 43 48
2.338764e-01 -3.111559e+00 -2.839044e+00 159 170 166
-3.272191e+00 -3.999363e+00 -2.279885e+00 141 156 159
9.541061e-01 -2.033982e+00 -3.364636e+00 27 30 47
7.160471e-01 -1.909979e+00 -3.357982e+00 201 207 204
7.558035e-01 -1.760898e+00 -3.405408e+00 205 208 213
-4.347088e+00 -3.248220e+00 -2.466446e+00 58 71 80
-3.935851e+00 -2.904778e+00 -2.590195e+00 61 71 70
-3.933831e+00 -2.906062e+00 -2.585457e+00 61 71 70
-1.093635e+00 -1.062791e+00 -3.230393e+00 63 83 80
-4.635274e+00 -2.501352e+00 -2.662830e+00 67 79 69
-3.280645e+00 -5.024468e+00 -2.277819e+00 38 38 65
-5.462259e-01 -3.821468e+00 -2.803359e+00 118 119 139
-1.083877e-01 -3.608984e+00 -2.842664e+00 207 209 195
1.060636e-01 -3.526505e+00 -2.866367e+00 206 209 189
7.175761e-02 -3.538352e+00 -2.862269e+00 207 209 196
-6.234014e-02 -3.587587e+00 -2.853819e+00 206 210 187
3.362944e-01 -3.431075e+00 -2.907699e+00 205 207 189
4.531363e-01 -3.373767e+00 -2.916166e+00 205 208 197
4.531363e-01 -3.373767e+00 -2.916166e+00 205 208 197
-1.343552e+00 -4.070802e+00 -2.565295e+00 115 123 113
-1.343552e+00 -4.070802e+00 -2.565295e+00 115 123 113
-2.281212e+00 -4.440984e+00 -2.428533e+00 107 117 119
-1.101381e+00 -3.959190e+00 -2.661817e+00 19 22 25
-2.355891e+00 -4.453759e+00 -2.397472e+00 102 109 109
-2.359850e+00 -4.452910e+00 -2.421111e+00 102 109 109
1.905983e-01 -3.444181e+00 -2.900125e+00 137 140 121
1.197483e-01 -3.473625e+00 -2.887949e+00 142 148 136
1.200096e-01 -3.473751e+00 -2.887661e+00 142 148 136
5.793727e-03 -3.481775e+00 -2.885528e+00 206 209 198
1.060833e+00 -2.007095e+00 -3.416236e+00 217 221 202
1.060833e+00 -2.007095e+00 -3.416236e+00 217 221 202
-2.211786e+00 -2.157979e+00 -2.888962e+00 186 196 196
-4.208493e+00 -2.945662e+00 -2.574520e+00 178 188 185
-3.923552e+00 -2.447880e+00 -3.340182e+00 189 190 187
-1.933517e+00 -1.711639e+00 -3.013022e+00 192 204 196
-4.336546e+00 -2.648405e+00 -2.658616e+00 178 189 191
-4.336546e+00 -2.648405e+00 -2.658616e+00 178 189 191
-8.716704e-01 -2.060073e-02 -3.346457e+00 131 142 144
-3.904038e+00 -5.245725e+00 -2.155869e+00 184 194 194
-3.009881e+00 -4.889813e+00 -2.297478e+00 189 193 193
-3.009881e+00 -4.889813e+00 -2.297478e+00 189 193 193
-2.696983e+00 -4.748516e+00 -2.370904e+00 206 208 202
-3.030069e+00 -4.848906e+00 -2.319202e+00 185 193 196
-2.696143e+00 -4.687720e+00 -2.399759e+00 38 39 61
-1.167177e-01 -3.651499e+00 -2.826988e+00 178 180 176
-1.167177e-01 -3.651499e+00 -2.826988e+00 178 180 176
4.835493e-01 -3.405136e+00 -2.919415e+00 157 163 140
4.835669e-01 -3.405115e+00 -2.919718e+00 157 163 140
4.352211e-01 -3.425319e+00 -2.910871e+00 186 189 178
3.252883e-01 -3.470238e+00 -2.895534e+00 150 153 152
3.252143e-01 -3.470184e+00 -2.895680e+00 150 153 152
3.808985e-01 -3.444115e+00 -2.905178e+00 145 150 144
3.808976e-01 -3.443835e+00 -2.904217e+00 145 150 144
-5.421064e-01 -3.784029e+00 -2.740632e+00 243 244 236
1.361649e-01 -3.503563e+00 -2.882562e+00 205 210 199
3.498102e-01 -3.416985e+00 -2.910025e+00 203 205 194
-3.579313e+00 -4.715144e+00 -2.328601e+00 179 193 180
1.149311e+00 -2.766890e+00 -3.119489e+00 160 161 160
1.203298e+00 -2.568404e+00 -3.213420e+00 41 36 69
3.029557e-01 -2.948844e+00 -2.770587e+00 120 125 148
-5.676047e-01 -3.095609e+00 -2.875211e+00 22 32 43
-5.384593e-01 -3.069462e+00 -2.895265e+00 150 166 165
-4.196676e+00 -4.255729e+00 -2.191540e+00 35 45 55
9.343604e-01 -2.058343e+00 -3.419059e+00 213 216 197
1.002084e+00 -2.032068e+00 -3.412926e+00 219 220 213
8.543537e-01 -2.027646e+00 -3.304066e+00 221 225 210
-3.058354e+00 -3.887658e+00 -1.365581e-01 111 120 117
-4.225585e+00 -3.067184e+00 -2.532556e+00 181 192 189
-3.849281e+00 -2.849393e+00 -2.623600e+00 172 187 181
-3.383371e+00 -2.613507e+00 -2.694157e+00 68 69 75
-1.989798e+00 -1.841591e+00 -2.990266e+00 135 151 150
-4.524619e+00 -2.793169e+00 -2.573398e+00 187 198 194
-3.992033e+00 -2.553841e+00 -2.706719e+00 63 71 79
-3.983634e+00 -2.558069e+00 -2.688004e+00 63 71 79
-4.512153e+00 -2.757730e+00 -2.598727e+00 69 71 87
-4.149896e+00 -2.566075e+00 -2.688786e+00 183 193 183
-4.149005e+00 -2.565957e+00 -2.688916e+00 183 193 183
-4.604104e+00 -2.626342e+00 -2.637115e+00 187 202 198
-2.885900e+00 -4.834992e+00 -2.338168e+00 205 210 193
-3.039895e+00 -4.875626e+00 -2.320908e+00 60 70 74
-3.039411e+00 -4.876517e+00 -2.318820e+00 60 70 74
-3.069643e+00 -4.887991e+00 -2.313911e+00 59 61 93
-2.909396e+00 -4.818631e+00 -2.338005e+00 143 146 156
-2.720162e+00 -4.734114e+00 -2.366263e+00 57 60 37
-2.926878e+00 -4.799805e+00 -2.325654e+00 202 206 198
-2.712410e+00 -4.708626e+00 -2.375726e+00 196 204 189
-2.092033e+00 -4.455716e+00 -2.452234e+00 98 113 92
-7.586050e-02 -3.636019e+00 -2.832058e+00 171 173 172
-7.539763e-02 -3.635993e+00 -2.829110e+00 171 173 172
1.031253e-01 -3.562288e+00 -2.862636e+00 152 157 143
1.031352e-01 -3.562347e+00 -2.862353e+00 152 157 143
1.863046e-01 -3.529246e+00 -2.874951e+00 158 158 157
1.863210e-01 -3.529406e+00 -2.874869e+00 158 158 157
-1.709666e+00 -4.219121e+00 -2.452592e+00 100 110 116
3.329515e-01 -3.391374e+00 -2.918982e+00 141 141 140
-1.859929e+00 -4.227826e+00 -2.436587e+00 98 108 81
1.257205e+00 -2.722621e+00 -3.139518e+00 150 150 148
1.257205e+00 -2.722621e+00 -3.139518e+00 150 150 148
-3.789830e+00 -4.590049e+00 -2.391044e+00 55 63 58
-3.726579e+00 -4.561477e+00 -2.408274e+00 169 170 163
1.033707e+00 -2.579087e+00 -3.187239e+00 93 93 121
-4.221651e+00 -4.371035e+00 -2.168714e+00 77 92 89
6.630234e-01 -1.999404e+00 -3.316774e+00 208 216 202
-2.406640e+00 -2.340417e+00 -2.849109e+00 179 190 179
-2.688672e+00 -2.457187e+00 -2.787863e+00 181 188 181
-2.962480e+00 -2.540200e+00 -2.752101e+00 66 77 71
-3.024326e+00 -2.545476e+00 -2.745318e+00 65 76 79
-3.939041e+00 -2.876957e+00 -2.612906e+00 79 88 88
-3.939041e+00 -2.876957e+00 -2.612906e+00 79 88 88
-3.145931e+00 -2.384709e+00 -2.795774e+00 186 195 198
-4.003957e+00 -2.586623e+00 -2.679609e+00 188 197 193
-4.488209e+00 -2.785098e+00 -2.599324e+00 184 190 193
-4.575980e+00 -2.621897e+00 -2.636463e+00 75 76 81
-1.789565e+00 -4.367487e+00 -2.474337e+00 100 109 80
-3.230360e+00 -4.921730e+00 -2.291633e+00 198 205 202
-1.150306e-02 -3.610278e+00 -2.845624e+00 206 209 188
-1.151314e-02 -3.610115e+00 -2.845526e+00 206 209 188
3.231123e-02 -3.589728e+00 -2.851678e+00 152 153 146
3.236996e-02 -3.589732e+00 -2.851817e+00 152 153 146
1.277136e-01 -3.550692e+00 -2.867358e+00 205 210 190
-1.478007e-01 -3.596169e+00 -2.838587e+00 102 102 106
3.912604e-01 -3.365993e+00 -2.931559e+00 148 149 160
3.056324e-01 -3.397416e+00 -2.917295e+00 203 205 182
-1.415967e-01 -3.566261e+00 -2.853772e+00 209 213 185
-1.399903e+00 -4.012167e+00 -2.289539e+00 120 132 112
-1.324647e+00 -3.926416e+00 -2.763985e+00 134 143 140
-1.066935e+00 -3.710106e+00 -2.633067e+00 153 163 147
-3.762999e+00 -4.485261e+00 -2.435075e+00 139 139 139
-3.762662e+00 -4.483912e+00 -2.430427e+00 139 139 139
9.882494e-01 -2.595645e+00 -3.168543e+00 192 193 192
-6.250904e-01 -3.145259e+00 -2.842239e+00 142 153 157
-6.250904e-01 -3.145259e+00 -2.842239e+00 142 153 157
-3.996902e+00 -4.493413e+00 -2.134876e+00 129 144 151
-3.996902e+00 -4.493413e+00 -2.134876e+00 129 144 151
-4.336866e-01 -2.853851e+00 -3.012747e+00 31 43 66
-4.246325e+00 -4.357598e+00 -2.168648e+00 45 53 64
8.106207e-01 -2.106184e+00 -3.303777e+00 86 86 115
6.643265e-01 -1.791675e+00 -3.394057e+00 81 79 99
-3.645420e+00 -2.683176e+00 -2.679387e+00 185 190 184
-1.242091e+00 -1.648198e+00 -3.068652e+00 154 167 167
-3.714242e+00 -2.574367e+00 -2.701010e+00 140 150 153
-3.353165e-01 -6.127817e-01 -3.207198e+00 53 68 72
-1.236797e-01 2.473606e-02 -3.636023e+00 97 98 102
-3.267641e+00 -4.993875e+00 -2.237937e+00 199 211 170
-1.373409e-01 -3.657835e+00 -2.824990e+00 204 206 201
2.070253e-01 -3.447378e+00 -2.899374e+00 102 105 112
3.213166e-02 -3.510524e+00 -2.874196e+00 212 219 177
3.234301e-02 -3.510673e+00 -2.873675e+00 212 219 177
-8.834897e-02 -3.550241e+00 -2.857097e+00 104 105 95
2.971586e-01 -3.400988e+00 -2.917043e+00 202 203 187
2.971586e-01 -3.400988e+00 -2.917043e+00 202 203 187
1.269701e-01 -3.460054e+00 -2.895101e+00 112 112 109
1.127764e-01 -3.454156e+00 -2.894377e+00 204 206 182
-4.202985e+00 -4.278610e+00 -2.207151e+00 164 177 177
-4.202985e+00 -4.278610e+00 -2.207151e+00 164 177 177
-4.044653e+00 -4.214338e+00 -2.237783e+00 161 177 169
-4.044653e+00 -4.214338e+00 -2.237783e+00 161 177 169
1.022351e+00 -1.875445e+00 -3.289657e+00 177 183 164
-3.966809e+00 -2.880481e+00 -2.601369e+00 77 86 83
-3.978952e+00 -2.612383e+00 -2.681714e+00 153 167 173
-4.345670e+00 -2.657197e+00 -2.643659e+00 151 160 156
-7.997672e-01 1.185192e-02 -3.376963e+00 184 197 146
8.473088e-01 -3.249834e+00 -2.973074e+00 197 204 162
3.297488e-01 -3.400587e+00 -2.916406e+00 113 116 109
-3.845073e+00 -5.022888e+00 -2.235588e+00 187 195 201
3.579607e-01 -3.381020e+00 -2.922076e+00 206 209 182
-3.604213e+00 -4.923362e+00 -2.269892e+00 187 198 197
-3.639762e+00 -4.938389e+00 -2.264566e+00 193 201 200
4.712985e-01 -3.334076e+00 -2.937515e+00 206 205 192
4.487095e-01 -3.345734e+00 -2.935368e+00 203 205 192
4.452170e-01 -3.343964e+00 -2.936286e+00 203 205 192
-3.674511e+00 -4.951793e+00 -2.237936e+00 186 193 186
-3.859416e+00 -5.015821e+00 -2.229585e+00 95 99 117
-8.138966e-02 -3.540921e+00 -2.862750e+00 205 209 188
-8.138966e-02 -3.540921e+00 -2.862750e+00 205 209 188
-3.776810e+00 -4.981393e+00 -2.243119e+00 110 113 129
-1.754714e-01 -3.572704e+00 -2.851859e+00 197 200 189
-1.907025e-01 -3.568403e+00 -2.852240e+00 119 122 111
-1.915721e-01 -3.569123e+00 -2.850495e+00 119 122 111
-1.407055e-01 -3.546679e+00 -2.852400e+00 121 122 116
9.529459e-02 -3.447074e+00 -2.894946e+00 126 126 130
1.845549e-01 -3.195000e+00 -2.823805e+00 89 92 89
-3.693290e+00 -4.589804e+00 -2.402449e+00 179 184 161
-3.656028e+00 -4.530566e+00 -2.407490e+00 138 142 136
9.612310e-01 -2.607282e+00 -3.183062e+00 187 188 183
7.833813e-01 -2.017942e+00 -3.340658e+00 141 144 150
8.166400e-01 -1.876330e+00 -3.256689e+00 177 182 155
-1.643969e+00 -1.858104e+00 -2.987037e+00 164 177 167
-4.051288e+00 -2.621419e+00 -2.685377e+00 155 162 129
-5.425821e+00 -1.199472e+00 -3.310866e+00 215 207 172
-2.765699e+00 -2.346226e+00 -2.800918e+00 162 171 142
-4.490992e+00 -2.735193e+00 -2.611891e+00 69 64 42
-4.495284e+00 -2.726919e+00 -2.608812e+00 69 64 42
-3.596521e+00 -2.689564e+00 -2.680696e+00 156 160 129
-4.351274e+00 -3.244711e+00 -2.488833e+00 61 62 46
-4.351274e+00 -3.244711e+00 -2.488833e+00 61 62 46
-4.278007e+00 -3.259302e+00 -2.484352e+00 165 172 138
-3.945012e+00 -2.909541e+00 -2.623065e+00 67 66 46
-3.947145e+00 -2.905552e+00 -2.609198e+00 67 66 46
-3.106099e+00 -2.339459e+00 -2.806730e+00 67 67 38
-3.106099e+00 -2.339459e+00 -2.806730e+00 67 67 38
-2.686709e+00 -2.236843e+00 -2.846936e+00 85 88 59
-2.679641e+00 -4.194093e+00 -2.254880e+00 160 165 135
-4.333855e+00 -2.647548e+00 -2.657431e+00 191 190 153
-4.637174e+00 -2.501713e+00 -2.655585e+00 63 61 46
-3.772103e+00 -2.606347e+00 -2.689089e+00 198 196 158
-4.200539e+00 -2.943950e+00 -2.558486e+00 197 194 158
-8.895669e-02 -3.560291e+00 -2.861543e+00 92 84 96
-8.977970e-02 -3.560103e+00 -2.860694e+00 92 84 96
6.004687e-02 -3.497187e+00 -2.882114e+00 202 201 137
6.004687e-02 -3.497187e+00 -2.882114e+00 202 201 137
1.731800e-01 -3.495694e+00 -2.885682e+00 199 198 165
-7.820841e-01 -2.766896e+00 -2.751138e+00 160 169 142
3.696464e-01 -2.383518e+00 -2.729887e+00 167 190 195
-3.881383e+00 -5.037265e+00 -2.225097e+00 74 73 59
-3.822135e+00 -5.015361e+00 -2.236764e+00 105 94 61
-4.229537e+00 -2.871373e+00 -2.598284e+00 189 189 152
-4.448085e+00 -2.741673e+00 -2.613319e+00 69 65 56
-4.434282e+00 -2.673478e+00 -2.635384e+00 196 195 147
-3.900566e+00 -2.886176e+00 -2.605005e+00 199 198 155
-3.847005e+00 -2.849869e+00 -2.618630e+00 198 197 153
-4.005080e+00 -2.585645e+00 -2.687846e+00 198 198 160
-3.987575e+00 -2.558882e+00 -2.692276e+00 69 67 58
2.559382e-02 -3.556796e+00 -2.856362e+00 202 201 170
-3.191426e+00 -2.069320e+00 -2.877836e+00 200 199 167
-2.987726e+00 -2.016876e+00 -2.914045e+00 75 74 63
4.353446e-01 -3.422272e+00 -2.907084e+00 163 162 136
4.353446e-01 -3.422272e+00 -2.907084e+00 163 162 136
4.009601e-01 -3.403379e+00 -2.919445e+00 198 197 165
4.006917e-01 -3.403613e+00 -2.916105e+00 198 197 165
6.002993e-01 -3.354434e+00 -2.936295e+00 151 152 133
5.974363e-01 -3.355316e+00 -2.933323e+00 151 152 133
-2.311138e+00 -1.864189e+00 -2.972228e+00 201 200 170
-1.968905e+00 -1.979006e+00 -2.937279e+00 194 198 164
-2.016703e+00 -1.639709e+00 -3.030587e+00 197 200 169
-1.166150e+00 -1.818190e+00 -3.020097e+00 146 158 138
-3.922811e+00 -3.671822e+00 -2.407431e+00 153 161 123
-4.450162e+00 -2.769577e+00 -2.607517e+00 198 196 157
-4.414434e+00 -2.687531e+00 -2.631830e+00 149 154 123
-4.617135e+00 -2.586090e+00 -2.651541e+00 141 145 117
-4.321072e+00 -2.659008e+00 -2.649905e+00 201 197 161
-3.927353e+00 -2.777168e+00 -2.638706e+00 193 190 149
-4.133304e+00 -2.614672e+00 -2.669145e+00 198 196 160
-3.654892e+00 -2.714638e+00 -2.669409e+00 143 149 115
-4.049352e+00 -2.500672e+00 -2.705176e+00 62 61 37
-2.716520e+00 -2.447991e+00 -2.801192e+00 69 70 62
2.661343e-01 -3.495721e+00 -2.881543e+00 144 144 121
-2.662300e+00 -2.218855e+00 -2.822270e+00 55 61 54
3.415671e-01 -3.365513e+00 -2.916683e+00 195 194 162
-2.119267e+00 -2.225185e+00 -2.882338e+00 200 204 173
-2.270493e+00 -2.115307e+00 -2.914161e+00 76 73 61
-2.156487e+00 -1.979766e+00 -2.944812e+00 186 190 157
-2.169274e+00 -1.953652e+00 -2.955374e+00 186 190 154
-1.843613e+00 -2.041054e+00 -2.934351e+00 77 77 60
-3.606140e+00 -1.132310e+00 -3.068483e+00 101 97 68
-1.968774e+00 -1.823409e+00 -2.990685e+00 200 206 172
-1.602341e+00 -1.946216e+00 -2.963870e+00 81 80 67
1.197851e+00 -2.573744e+00 -3.223836e+00 47 46 119
1.323304e+00 -2.593849e+00 -3.223783e+00 221 214 173
3.298142e-01 -2.216773e+00 -2.816616e+00 159 154 135
-3.735871e+00 -4.498893e+00 -2.428121e+00 202 197 141
-4.031258e+00 -2.586846e+00 -2.683784e+00 151 159 127
-3.667550e+00 -2.692293e+00 -2.671793e+00 196 197 152
-3.908068e+00 -2.460922e+00 -2.725687e+00 141 148 115
-2.993897e+00 -2.851342e+00 -2.662927e+00 134 149 117
-3.452154e+00 -2.618450e+00 -2.698862e+00 75 80 54
-3.003679e+00 -2.597138e+00 -2.740132e+00 157 166 139
-2.981792e+00 -2.380619e+00 -2.796987e+00 193 192 154
-2.813904e+00 -2.384612e+00 -2.805535e+00 82 83 68
-3.062009e+00 -2.201706e+00 -2.848440e+00 191 193 154
-2.426302e+00 -2.332435e+00 -2.848517e+00 76 81 59
-2.947282e+00 -1.976821e+00 -2.917126e+00 148 156 125
4.224859e-01 -3.351457e+00 -2.931955e+00 153 151 144
-2.525741e+00 -2.059691e+00 -2.918291e+00 195 199 163
-2.546837e+00 -2.025734e+00 -2.919846e+00 190 196 152
-2.140311e+00 -2.007385e+00 -2.943110e+00 188 192 158
-7.373463e-01 -2.626242e+00 -2.788388e+00 153 166 132
1.149931e+00 -2.696993e+00 -3.167863e+00 129 127 134
-1.208271e+00 -1.751143e+00 -3.035613e+00 83 85 72
3.613160e-01 -2.305093e+00 -2.746690e+00 175 180 181
-3.676583e+00 -4.938210e+00 -2.263559e+00 53 52 64
-3.893795e+00 -2.839607e+00 -2.622255e+00 153 157 123
-1.538731e+00 -3.703040e+00 -2.449518e+00 183 192 164
-3.130495e+00 -2.453521e+00 -2.772744e+00 150 161 132
7.104203e-05 -3.522664e+00 -2.870752e+00 197 200 120
5.999111e-06 -3.522526e+00 -2.871060e+00 197 200 120
-1.790426e-02 -3.514242e+00 -2.873201e+00 71 68 96
9.999585e-01 -2.593932e+00 -3.195215e+00 190 190 180
-9.899274e-01 -1.599461e+00 -3.088853e+00 182 190 155
-3.809665e+00 -5.020831e+00 -2.234732e+00 82 63 85
-3.800030e+00 -4.993876e+00 -2.242393e+00 61 48 83
-3.800030e+00 -4.993876e+00 -2.242393e+00 61 48 83
-3.663219e+00 -4.945066e+00 -2.264601e+00 185 185 129
-3.608435e+00 -4.937263e+00 -2.264289e+00 70 57 78
-3.775585e+00 -4.626746e+00 -2.389314e+00 37 18 42
-3.725442e+00 -4.539351e+00 -2.417981e+00 202 197 139
-3.725442e+00 -4.539351e+00 -2.417981e+00 202 197 139
-3.790073e+00 -4.496535e+00 -2.425032e+00 110 107 79
