ply
format ascii 1.0
element face 0
property list uchar int vertex_indices
element vertex 904
property float x
property float y
property float z
property uchar diffuse_red
property uchar diffuse_green
property uchar diffuse_blue
end_header
-4.262188e+00 -4.661787e+00 -2.011472e+00 45 47 62
-4.263586e+00 -4.662344e+00 -2.012666e+00 45 47 62
-4.489042e+00 -4.421107e+00 -2.052565e+00 165 173 127
-3.778171e+00 -4.846773e+00 -2.377781e+00 190 182 126
-3.916383e+00 -4.775934e+00 -2.372779e+00 132 122 92
-3.038700e+00 -5.075329e+00 -2.410978e+00 155 149 124
-4.300918e+00 -4.321556e+00 -2.125400e+00 42 44 42
-3.011128e+00 -5.052759e+00 -2.427896e+00 143 130 129
-5.223032e-01 -4.122990e+00 -3.250511e+00 204 208 132
6.731377e-02 -3.735859e+00 -3.479045e+00 185 187 141
1.555114e-01 -3.708118e+00 -3.506923e+00 109 104 125
2.300005e-01 -3.629195e+00 -3.545468e+00 198 198 144
7.049710e-01 -3.581994e+00 -3.654416e+00 192 195 145
5.665898e-01 -3.512225e+00 -3.648722e+00 122 135 133
1.027518e+00 -3.453036e+00 -3.757736e+00 139 138 138
-2.736950e+00 -4.886938e+00 -2.582009e+00 141 136 98
-8.938932e-01 -3.845103e+00 -3.262237e+00 19 19 21
-1.650456e+00 -4.409544e+00 -3.133863e+00 119 124 120
-1.467377e+00 -4.403928e+00 -2.730346e+00 132 134 131
-1.630825e+00 -4.456696e+00 -2.822351e+00 116 116 114
-1.807367e+00 -4.504867e+00 -2.921613e+00 115 115 113
-8.045610e-01 -3.839957e+00 -3.313853e+00 21 21 22
-8.045610e-01 -3.839957e+00 -3.313853e+00 21 21 22
5.151692e-01 -3.643212e+00 -3.596706e+00 153 144 113
5.151692e-01 -3.643212e+00 -3.596706e+00 153 144 113
-1.776256e+00 -4.333973e+00 -2.734081e+00 137 137 134
-1.021210e+00 -1.232484e+00 -3.704832e+00 197 200 151
-1.843094e+00 -4.451809e+00 -2.892170e+00 110 118 78
-1.928720e+00 -4.481678e+00 -2.864227e+00 98 106 70
-1.828828e+00 -4.412040e+00 -2.736784e+00 116 116 116
-1.993733e+00 -4.465174e+00 -2.676707e+00 104 110 77
-4.342238e+00 -2.708161e+00 -2.584935e+00 189 191 135
2.468783e-01 -3.654431e+00 -3.539331e+00 204 198 137
-1.039844e+00 -1.203065e+00 -3.697468e+00 60 63 44
5.816217e-01 -3.620472e+00 -3.616992e+00 207 209 132
7.812245e-01 -3.454050e+00 -3.709229e+00 208 204 136
3.041223e-01 -3.730246e+00 -3.525933e+00 208 204 136
1.951463e-01 -3.772888e+00 -3.492697e+00 205 203 118
1.421043e-01 -3.792790e+00 -3.474839e+00 200 196 133
4.027099e-01 -3.620510e+00 -3.575237e+00 195 194 139
4.369298e-01 -3.581056e+00 -3.601185e+00 205 207 141
1.157237e+00 -3.370340e+00 -3.811595e+00 133 119 92
1.158293e+00 -3.370941e+00 -3.815623e+00 133 119 92
1.045838e+00 -3.437613e+00 -3.768811e+00 213 211 150
1.122279e+00 -3.384275e+00 -3.800572e+00 134 121 103
1.027514e+00 -3.429359e+00 -3.769534e+00 213 207 148
9.993382e-01 -3.437376e+00 -3.758898e+00 130 118 84
9.992929e-01 -3.437695e+00 -3.759416e+00 130 118 84
8.420795e-01 -3.514913e+00 -3.702856e+00 213 208 151
8.420795e-01 -3.514913e+00 -3.702856e+00 213 208 151
7.172367e-01 -3.577058e+00 -3.656277e+00 125 114 92
7.594126e-01 -3.536561e+00 -3.679061e+00 131 121 105
7.968528e-01 -3.456255e+00 -3.711574e+00 124 116 96
4.757450e-01 -3.660874e+00 -3.581543e+00 210 209 144
4.746941e-01 -3.660084e+00 -3.584684e+00 210 209 144
5.154128e-01 -3.633189e+00 -3.600217e+00 136 122 108
5.153409e-01 -3.632668e+00 -3.599533e+00 136 122 108
4.439728e-01 -3.676194e+00 -3.572176e+00 206 203 128
4.833471e-01 -3.648898e+00 -3.587283e+00 139 133 88
7.206485e-01 -3.478419e+00 -3.687957e+00 126 122 76
7.647021e-01 -3.449053e+00 -3.707452e+00 115 110 69
2.132912e-01 -3.752212e+00 -3.502225e+00 133 128 100
2.131659e-01 -3.751928e+00 -3.501824e+00 133 128 100
4.219099e-01 -3.569221e+00 -3.601316e+00 94 92 80
1.321358e-01 -3.688577e+00 -3.506394e+00 206 214 129
-9.933356e-01 -1.234719e+00 -3.688980e+00 154 159 119
1.213086e+00 -3.379925e+00 -3.819302e+00 166 161 124
1.183618e+00 -3.378028e+00 -3.814776e+00 118 107 103
9.533935e-01 -3.483960e+00 -3.734217e+00 153 146 104
9.829804e-01 -3.456008e+00 -3.750514e+00 160 155 107
9.370652e-01 -3.471430e+00 -3.736292e+00 213 204 140
9.370652e-01 -3.471430e+00 -3.736292e+00 213 204 140
9.156954e-01 -3.472995e+00 -3.730542e+00 212 204 154
7.711996e-01 -3.556868e+00 -3.673356e+00 154 144 98
8.298492e-01 -3.514018e+00 -3.699807e+00 145 139 109
8.298492e-01 -3.514018e+00 -3.699807e+00 145 139 109
7.562799e-01 -3.548567e+00 -3.674864e+00 209 203 148
7.262769e-01 -3.563997e+00 -3.665810e+00 210 203 160
6.341625e-01 -3.595671e+00 -3.635254e+00 143 135 86
5.748043e-01 -3.632586e+00 -3.612071e+00 138 127 102
5.748043e-01 -3.632586e+00 -3.612071e+00 138 127 102
5.596620e-01 -3.638305e+00 -3.607854e+00 107 95 68
5.597629e-01 -3.638502e+00 -3.608167e+00 107 95 68
5.644023e-01 -3.627780e+00 -3.607433e+00 207 202 138
5.554543e-01 -3.629883e+00 -3.609652e+00 118 106 90
5.673117e-01 -3.616829e+00 -3.615673e+00 130 121 88
5.260250e-01 -3.625924e+00 -3.604012e+00 210 206 142
4.634189e-01 -3.658903e+00 -3.581836e+00 129 121 86
4.634698e-01 -3.659025e+00 -3.582012e+00 129 121 86
7.425298e-01 -3.470395e+00 -3.696192e+00 119 112 91
7.425905e-01 -3.470111e+00 -3.695957e+00 119 112 91
6.704939e-01 -3.507970e+00 -3.670744e+00 110 104 74
3.737914e-01 -3.698332e+00 -3.551018e+00 115 106 93
7.104633e-01 -3.480194e+00 -3.686940e+00 213 214 132
7.104633e-01 -3.480194e+00 -3.686940e+00 213 214 132
3.546197e-01 -3.707786e+00 -3.543727e+00 123 114 86
4.065190e-01 -3.668498e+00 -3.566962e+00 131 118 99
2.596987e-01 -3.757224e+00 -3.508448e+00 139 125 93
6.639844e-01 -3.491431e+00 -3.675972e+00 132 120 77
2.236198e-01 -3.771950e+00 -3.497544e+00 146 141 104
1.718171e-01 -3.776681e+00 -3.485384e+00 109 103 71
4.339084e-01 -3.595998e+00 -3.595538e+00 111 106 73
1.294898e-01 -3.789532e+00 -3.472666e+00 126 118 82
1.709437e+00 -2.756448e+00 -4.116152e+00 130 124 94
1.681611e+00 -2.767935e+00 -4.112409e+00 127 116 92
3.006524e-01 -3.623121e+00 -3.752356e+00 118 111 90
1.614683e+00 -2.772365e+00 -4.098177e+00 136 126 111
1.531443e+00 -2.807297e+00 -4.067882e+00 139 130 101
9.641424e-02 -3.694764e+00 -3.497634e+00 199 193 139
-1.028423e+00 -1.521609e+00 -3.614293e+00 43 43 41
-1.029403e+00 -1.520890e+00 -3.614880e+00 43 43 41
-4.879222e-02 -3.567208e-01 -3.921175e+00 180 181 182
-1.579467e+00 -1.729820e+00 -3.447002e+00 145 145 147
-7.558708e-01 -1.485849e+00 -3.664436e+00 45 44 45
6.279679e-01 -3.558627e+00 -3.643380e+00 191 192 180
2.090388e+00 -6.822185e+00 -9.702767e+00 156 160 163
5.253484e-01 -3.279275e+00 -3.533318e+00 134 143 142
1.155431e+00 -1.632438e+00 -4.423510e+00 163 165 162
9.256576e-02 -3.727286e+00 -3.487987e+00 188 191 164
4.572800e-01 -3.559735e+00 -3.611910e+00 185 186 170
6.820786e-01 -2.233054e+00 -3.496142e+00 112 119 143
1.309503e-01 -3.730083e+00 -3.496964e+00 181 183 171
1.340218e+00 -1.631618e+00 -4.260753e+00 176 176 175
6.525490e-01 -1.111721e+00 -4.393930e+00 133 133 159
-2.218919e+00 -2.048451e+00 -3.242906e+00 55 56 51
-1.936022e+00 -1.864048e+00 -3.335669e+00 187 190 179
-5.621348e-01 -2.493979e+00 -3.425798e+00 163 174 169
1.149103e+00 -1.752907e+00 -4.178969e+00 177 176 171
-3.032916e+00 -1.905765e+00 -3.142280e+00 185 188 182
-3.116684e+00 -1.813590e+00 -3.127614e+00 192 194 189
-1.654787e+00 -1.629251e+00 -3.456185e+00 140 146 142
6.681814e-01 -1.490243e+00 -3.576253e+00 105 110 133
-1.378208e+00 -1.576728e+00 -3.528583e+00 129 140 143
-8.324962e-01 -1.380012e+00 -3.689100e+00 49 49 56
7.367560e-01 -2.232136e+00 -3.824836e+00 201 195 138
-2.106276e+00 8.992947e-01 -1.398186e+01 59 59 64
1.277996e+00 -2.423419e+00 -4.141983e+00 159 170 187
-3.294309e+00 -5.057974e+00 -2.532398e+00 186 190 187
-4.369134e+00 -4.555353e+00 -2.174990e+00 30 36 32
-2.558151e+00 -4.979063e+00 -2.645456e+00 193 196 182
-2.558151e+00 -4.979063e+00 -2.645456e+00 193 196 182
-4.961807e+00 -6.669362e+00 -3.296957e+00 149 120 87
-4.961807e+00 -6.669362e+00 -3.296957e+00 149 120 87
1.358182e+00 -1.813758e+00 -4.218791e+00 70 88 104
1.077525e+00 -1.701438e+00 -4.415727e+00 86 87 94
-3.296396e+00 -2.159028e+00 -2.980538e+00 70 70 70
-2.235526e+00 -4.709202e+00 -2.679974e+00 18 20 21
-1.973703e+00 -4.574368e+00 -2.725545e+00 94 96 99
-2.230914e+00 -4.631932e+00 -2.658061e+00 108 117 126
-3.822792e+00 -5.176279e+00 -2.214232e+00 186 194 199
-3.822792e+00 -5.176279e+00 -2.214232e+00 186 194 199
-2.676038e+00 -4.670056e+00 -2.558573e+00 99 108 117
-4.149993e+00 -5.533802e+00 -2.033769e+00 184 194 194
-5.554255e-01 -3.498896e+00 -3.337838e+00 152 160 158
-2.086383e+00 -2.266466e+00 -1.364298e+01 151 162 169
1.432948e+00 -1.903004e+00 -4.464057e+00 215 220 198
1.135118e+00 -1.510263e+00 -4.739402e+00 31 41 60
-6.556919e-01 -1.294049e+00 -3.755340e+00 190 200 197
-4.769661e+00 -2.544746e+00 -1.890785e+00 36 44 51
-2.364384e+00 -4.588945e+00 -2.610347e+00 102 115 115
-2.272269e+00 -4.522136e+00 -2.615708e+00 116 125 123
-2.544475e+00 -4.604524e+00 -2.569219e+00 91 104 88
8.013293e-01 -2.198829e+00 -3.505919e+00 110 123 143
-5.739872e+00 -7.147189e-01 -3.421305e+00 143 155 163
-1.937073e+00 -4.628159e+00 -2.755292e+00 103 109 82
6.916997e-01 -3.488696e+00 -3.683512e+00 148 149 160
-1.039258e+00 -3.981620e+00 -3.202227e+00 151 164 146
-3.166968e+00 -4.686034e+00 -2.499581e+00 109 120 111
-2.082902e+00 -4.242956e+00 -2.528542e+00 57 75 84
-1.973525e+00 -2.643787e+00 -1.275960e+01 151 165 153
-4.207004e+00 -4.641886e+00 -2.016894e+00 109 129 128
-4.024015e+00 -5.250916e+00 -2.156585e+00 187 198 195
-4.019320e+00 -5.251031e+00 -2.147156e+00 187 198 195
1.317001e+00 -2.642947e+00 -4.088441e+00 224 226 220
-8.252345e-01 -1.423164e+00 -3.684062e+00 77 86 96
-1.429140e+00 -1.392019e+00 -3.554863e+00 73 77 78
1.094066e+00 -3.417362e+00 -3.814627e+00 201 202 196
-3.791679e+00 -4.915959e+00 -2.300004e+00 166 188 177
-4.028977e+00 -4.825886e+00 -2.330431e+00 112 118 101
-4.598173e+00 -2.427875e+00 -2.690665e+00 69 66 47
-5.011930e+00 -2.824944e+00 -2.390637e+00 141 148 114
-1.222524e+00 -7.936645e+00 -9.003026e+00 209 203 171
-2.495696e+00 -4.739588e+00 -2.623919e+00 24 25 29
3.413623e+00 -6.186774e+00 -1.052570e+01 192 186 152
-3.888212e+00 -4.718207e+00 -2.392588e+00 168 157 130
-2.644157e+00 -4.760111e+00 -2.589949e+00 27 29 29
-4.871672e+00 -2.639814e+00 -2.472981e+00 76 70 54
-3.371333e+00 -1.931801e+00 -3.035365e+00 192 191 153
-3.076021e+00 -4.701367e+00 -2.501545e+00 92 89 54
-4.558530e+00 -2.913582e+00 -2.471525e+00 59 58 53
-3.886840e+00 -5.195492e+00 -2.204493e+00 185 185 129
-4.073225e+00 -4.735396e+00 -2.354234e+00 59 41 59
-4.034715e+00 -4.679565e+00 -2.377944e+00 201 196 135
-3.381046e+00 -5.205413e+00 -2.311204e+00 220 217 146
-3.171425e+00 -5.148915e+00 -2.370665e+00 221 215 177
-4.010727e+00 -4.684101e+00 -2.383276e+00 199 194 139
-5.059573e+00 -2.367344e+00 -2.540937e+00 92 103 86
-2.187785e+00 -2.014909e+00 -3.240594e+00 169 168 121
-1.565225e+00 -4.505400e+00 -2.884133e+00 28 28 26
-1.639349e+00 -4.457516e+00 -2.833724e+00 116 116 114
-1.886681e+00 -4.549963e+00 -2.755714e+00 100 101 91
-1.461435e+00 -4.169527e+00 -2.705042e+00 34 34 35
-5.070883e-01 -3.421267e+00 -3.369266e+00 177 183 130
-4.642976e-01 -3.343802e+00 -3.394673e+00 184 188 155
-1.509957e+00 -4.491292e+00 -2.902650e+00 28 28 29
-1.453068e+00 -4.434040e+00 -2.914435e+00 122 128 115
-1.609184e+00 -4.510167e+00 -2.860633e+00 121 127 102
-1.603940e+00 -4.397598e+00 -2.717627e+00 121 123 118
-1.764854e+00 -4.465157e+00 -2.663323e+00 98 106 70
-2.089307e+00 -4.502217e+00 -2.916417e+00 93 98 80
3.401058e-01 -3.632037e+00 -3.565864e+00 82 69 87
-8.834583e-01 -2.803432e+00 -4.521167e+00 180 182 158
-4.264151e-01 -2.815637e+00 -3.761336e+00 173 178 126
-2.725637e-01 -2.522780e+00 -3.650242e+00 160 166 116
3.759521e-01 -3.619914e+00 -3.575286e+00 83 70 89
2.582269e-01 -3.637007e+00 -3.547520e+00 85 74 68
8.287332e-01 -1.466439e+00 -4.410396e+00 126 124 100
8.399481e-01 -1.490638e+00 -4.347542e+00 126 124 100
1.017335e+00 -3.443758e+00 -3.760374e+00 209 207 137
1.943613e-01 -3.772458e+00 -3.492443e+00 205 203 118
1.162266e+00 -1.774291e+00 -4.217122e+00 83 83 61
-1.441650e+00 -1.776655e+00 -3.444893e+00 166 172 126
-2.930836e+00 -2.377821e+00 -3.004510e+00 166 173 139
1.228527e+00 -3.350572e+00 -3.832621e+00 210 210 142
4.194867e-01 -3.673815e+00 -3.568875e+00 205 199 141
2.161033e-01 9.866748e-01 -1.345425e+01 200 199 152
7.126334e-01 -2.336870e+00 -3.470243e+00 255 251 210
1.191334e+00 -3.369454e+00 -3.819574e+00 127 119 98
6.133357e-01 -3.606092e+00 -3.628144e+00 116 109 75
7.728074e-01 -3.466020e+00 -3.703577e+00 137 127 103
7.953614e-01 -3.443387e+00 -3.717830e+00 206 204 135
6.961618e-01 -3.496279e+00 -3.679633e+00 116 111 68
2.785117e-01 -3.751265e+00 -3.516131e+00 129 117 102
2.907597e-01 -3.725922e+00 -3.525717e+00 135 129 74
4.712724e-01 -3.579117e+00 -3.605216e+00 189 194 129
8.634619e-02 -3.827166e+00 -3.451326e+00 138 127 109
1.703611e+00 -2.738240e+00 -4.117405e+00 140 130 114
2.102902e-01 -3.651249e+00 -3.532294e+00 208 203 141
7.801701e-01 -4.440999e-01 -1.180578e+01 143 138 112
8.368111e-01 -1.471590e+00 -4.410298e+00 125 123 100
1.126359e+00 -2.113291e+00 -2.696635e+00 118 116 95
-1.134082e+00 -1.583828e+00 -3.573514e+00 40 40 40
-3.935586e-01 -3.186367e+00 -3.463903e+00 119 127 137
-9.160715e-01 -1.585054e+00 -3.605756e+00 145 147 141
1.568198e+00 -2.752230e+00 -4.076653e+00 168 173 166
-4.037446e-01 -2.930906e+00 -3.476597e+00 133 133 140
2.978462e-02 -3.699280e+00 -3.475252e+00 90 91 94
3.535534e-01 -3.572573e+00 -3.587966e+00 124 122 124
1.394533e+00 -1.896997e+00 -4.373059e+00 106 105 123
1.428426e-01 -3.790176e+00 -3.469023e+00 176 177 172
2.297055e-01 -3.627679e+00 -3.543579e+00 195 193 175
4.964631e-01 -3.653449e+00 -3.590075e+00 182 183 165
4.964631e-01 -3.653449e+00 -3.590075e+00 182 183 165
5.815747e-01 -3.620569e+00 -3.617089e+00 187 187 163
1.385246e+00 -2.602048e+00 -4.109797e+00 209 212 203
1.558942e+00 -2.809998e+00 -4.075640e+00 149 152 161
1.649664e+00 -2.769262e+00 -4.107847e+00 158 167 150
2.030656e-01 -3.658875e+00 -3.528126e+00 98 96 109
1.027389e+00 -3.428833e+00 -3.766014e+00 180 186 154
1.104911e+00 -3.416312e+00 -3.791994e+00 179 179 168
1.379811e+00 -2.782288e+00 -4.051990e+00 209 215 193
1.542619e+00 -2.811169e+00 -4.064570e+00 167 178 165
1.597241e+00 -2.788926e+00 -4.087309e+00 158 164 142
1.053209e+00 -1.856601e+00 -4.270709e+00 50 47 72
-4.878632e+00 -8.397671e+00 -1.710972e+01 114 130 119
1.171739e-01 -3.806596e+00 -3.457746e+00 177 178 165
9.874668e-02 -3.732680e+00 -3.479743e+00 105 103 100
1.527837e-01 -3.786370e+00 -3.473233e+00 97 97 97
9.426977e-02 -3.683393e+00 -3.495802e+00 91 89 91
2.219371e-01 -3.757426e+00 -3.502038e+00 191 189 164
2.908434e-01 -3.726015e+00 -3.525803e+00 112 110 114
4.571500e-01 -3.680114e+00 -3.574542e+00 98 94 95
4.832931e-01 -3.650737e+00 -3.589149e+00 111 110 110
5.262880e-01 -3.654384e+00 -3.596639e+00 103 101 104
5.262880e-01 -3.654384e+00 -3.596639e+00 103 101 104
5.262880e-01 -3.654384e+00 -3.596639e+00 103 101 104
5.296443e-01 -3.644911e+00 -3.598570e+00 188 190 166
4.765694e-01 -3.553608e+00 -3.619443e+00 107 104 112
6.171150e-01 -3.511294e+00 -3.658305e+00 175 180 141
6.641942e-01 -3.490828e+00 -3.677724e+00 99 100 98
6.879819e-01 -3.479377e+00 -3.683001e+00 88 89 102
7.143616e-01 -3.468229e+00 -3.691252e+00 102 100 101
7.143616e-01 -3.468229e+00 -3.691252e+00 102 100 101
7.803571e-01 -3.540159e+00 -3.680830e+00 95 95 101
8.299375e-01 -3.513790e+00 -3.699572e+00 104 103 103
9.999334e-01 -3.437988e+00 -3.759434e+00 80 82 98
1.216232e+00 -3.371094e+00 -3.821667e+00 172 175 154
1.227483e+00 -3.373661e+00 -3.823866e+00 73 81 86
1.529717e+00 -2.805586e+00 -4.064265e+00 96 106 105
1.570279e+00 -2.786629e+00 -4.078722e+00 71 76 84
1.700530e+00 -2.737260e+00 -4.127278e+00 83 89 88
1.257319e-01 -3.808859e+00 -3.459171e+00 109 110 103
1.244800e-01 -3.810578e+00 -3.465034e+00 109 110 103
1.241910e-01 -3.791533e+00 -3.465213e+00 175 173 166
1.964646e-01 -4.001024e+00 -4.122607e+00 180 180 173
2.014462e-01 -3.758650e+00 -3.493388e+00 129 128 119
2.004168e-01 -3.760422e+00 -3.498297e+00 129 128 119
2.248488e-01 -3.684713e+00 -3.525020e+00 104 97 108
2.222003e-01 -3.677021e+00 -3.527797e+00 176 174 159
1.987167e-01 -3.629828e+00 -3.535715e+00 109 115 114
1.987379e-01 -3.629889e+00 -3.536975e+00 109 115 114
3.103191e-01 -3.715527e+00 -3.531381e+00 117 114 108
3.199004e-01 -3.711983e+00 -3.535625e+00 115 115 113
3.407902e-01 -3.704424e+00 -3.543734e+00 115 116 119
3.928135e-01 -3.671615e+00 -3.562987e+00 129 129 119
4.498743e-01 -3.661937e+00 -3.577809e+00 115 113 121
5.115671e-01 -3.659858e+00 -3.592031e+00 119 122 106
5.118122e-01 -3.659797e+00 -3.592231e+00 119 122 106
5.610286e-01 -3.606380e+00 -3.618281e+00 109 108 97
5.610286e-01 -3.606380e+00 -3.618281e+00 109 108 97
-8.400993e-02 -2.546838e+00 -3.815476e+00 129 130 120
5.953772e-01 -3.594065e+00 -3.630045e+00 117 117 109
5.953772e-01 -3.594065e+00 -3.630045e+00 117 117 109
6.047012e-01 -3.597533e+00 -3.630801e+00 186 189 172
6.107648e-01 -3.518244e+00 -3.655884e+00 100 102 101
6.107648e-01 -3.518244e+00 -3.655884e+00 100 102 101
8.436214e-01 -3.871987e+00 -4.616797e+00 102 101 83
6.324072e-01 -3.514010e+00 -3.663855e+00 180 183 166
6.324072e-01 -3.514010e+00 -3.663855e+00 180 183 166
6.263775e-01 -3.499918e+00 -3.665455e+00 185 189 165
6.962662e-01 -3.569498e+00 -3.655013e+00 186 187 179
6.978127e-01 -3.563157e+00 -3.658815e+00 105 105 98
6.978127e-01 -3.563157e+00 -3.658815e+00 105 105 98
7.355661e-01 -3.568148e+00 -3.663783e+00 94 95 81
6.920350e-01 -3.486870e+00 -3.681599e+00 171 177 171
6.920350e-01 -3.486870e+00 -3.681599e+00 171 177 171
7.419966e-01 -3.562614e+00 -3.665039e+00 184 186 172
7.128761e-01 -3.492513e+00 -3.685063e+00 96 98 96
7.227795e-01 -3.470648e+00 -3.692743e+00 182 181 157
7.227795e-01 -3.470648e+00 -3.692743e+00 182 181 157
7.498418e-01 -3.477430e+00 -3.696836e+00 101 96 115
7.498418e-01 -3.477430e+00 -3.696836e+00 101 96 115
8.009565e-01 -3.530370e+00 -3.689326e+00 90 91 91
9.729840e-01 -3.457065e+00 -3.741051e+00 98 102 98
9.829919e-01 -3.455549e+00 -3.749976e+00 106 107 109
1.188267e+00 -3.389938e+00 -3.811005e+00 107 108 110
1.188267e+00 -3.389938e+00 -3.811005e+00 107 108 110
1.192392e+00 -3.370152e+00 -3.820649e+00 61 62 64
1.197852e+00 -3.371081e+00 -3.814842e+00 78 78 83
1.197852e+00 -3.371081e+00 -3.814842e+00 78 78 83
1.363778e+00 -2.606494e+00 -4.101441e+00 116 119 108
1.264448e+00 -2.423280e+00 -4.140214e+00 102 105 108
1.549666e+00 -2.792873e+00 -4.076683e+00 160 171 160
1.581526e+00 -2.808821e+00 -4.075005e+00 97 101 105
1.580643e+00 -2.810488e+00 -4.084523e+00 97 101 105
1.604844e+00 -2.770839e+00 -4.097847e+00 154 161 159
1.613480e+00 -2.771378e+00 -4.095588e+00 75 77 80
1.675690e+00 -2.757512e+00 -4.115807e+00 69 74 77
1.708586e+00 -2.754402e+00 -4.107307e+00 79 87 78
-4.416979e+00 -2.799262e+00 -2.532770e+00 53 54 58
-4.099478e+00 -2.605050e+00 -2.649930e+00 56 57 62
-5.845099e-01 -4.086945e+00 -3.193943e+00 85 86 83
-5.845099e-01 -4.086945e+00 -3.193943e+00 85 86 83
-3.018703e+00 -2.280170e+00 -3.018269e+00 53 56 60
-2.560691e+00 -2.030857e+00 -3.162973e+00 130 150 150
-2.052999e+00 -1.897117e+00 -3.304166e+00 54 61 64
-7.257353e-01 -4.073116e+00 -3.242759e+00 212 213 198
-4.862406e+00 -2.554503e+00 -2.500215e+00 56 57 59
-2.372127e+00 -2.039859e+00 -3.207230e+00 50 55 54
-1.925085e+00 -1.798380e+00 -3.326728e+00 127 149 147
-1.735894e+00 -1.785069e+00 -3.394207e+00 59 64 68
-3.213079e+00 -2.355449e+00 -2.955890e+00 57 60 64
-4.295207e+00 -2.322716e+00 -2.705375e+00 54 55 57
-4.295207e+00 -2.322716e+00 -2.705375e+00 54 55 57
-4.194450e+00 -5.572715e+00 -2.064781e+00 13 15 26
-2.430364e+00 -4.282713e+00 -2.462439e+00 61 68 74
-2.430364e+00 -4.282713e+00 -2.462439e+00 61 68 74
-1.667276e+00 -4.142487e+00 -2.659252e+00 149 164 164
-5.012173e+00 -2.337209e+00 -2.529491e+00 52 61 66
-3.287163e+00 -2.279099e+00 -2.956463e+00 156 171 171
-1.978199e+00 -1.368012e+00 -3.488102e+00 55 63 66
-1.978199e+00 -1.368012e+00 -3.488102e+00 55 63 66
-4.536927e+00 -4.419517e+00 -2.074328e+00 18 21 26
-1.554078e+00 -4.413064e+00 -2.897821e+00 153 162 162
-1.923075e+00 -4.223776e+00 -2.593155e+00 144 161 161
-3.965190e+00 -2.626275e+00 -2.686036e+00 187 192 184
-3.965190e+00 -2.626275e+00 -2.686036e+00 187 192 184
-3.807584e+00 -2.561774e+00 -2.743693e+00 172 177 179
-3.807584e+00 -2.561774e+00 -2.743693e+00 172 177 179
-4.033734e+00 -2.482353e+00 -2.714148e+00 183 188 191
-3.894173e+00 -2.435283e+00 -2.757568e+00 175 183 180
-2.615349e+00 -1.812289e+00 -3.236841e+00 56 66 70
-1.509952e+00 -1.789830e+00 -3.436091e+00 196 207 206
-4.063209e+00 -5.271271e+00 -2.135052e+00 81 75 90
-1.179788e+00 -4.191120e+00 -3.031009e+00 156 166 170
-1.023694e+00 -4.034239e+00 -3.097058e+00 15 23 38
-9.022137e-01 -3.945781e+00 -3.544491e+00 16 23 38
-8.190235e-01 -3.834846e+00 -3.563134e+00 139 156 163
-6.718753e-01 -3.616881e+00 -3.276215e+00 15 31 54
-6.231729e-01 -3.546470e+00 -3.295713e+00 16 34 70
-5.767819e-01 -3.471029e+00 -3.330701e+00 18 38 71
-4.773777e+00 -2.566133e+00 -2.504959e+00 177 188 182
-4.277326e+00 -2.418053e+00 -2.679465e+00 55 61 63
-3.096914e+00 -2.259084e+00 -2.995081e+00 60 66 72
-2.952669e+00 -2.063212e+00 -3.103279e+00 121 139 139
-2.688499e+00 -1.855010e+00 -3.205982e+00 130 149 153
-1.359104e+00 -3.992022e-01 -3.892997e+00 60 72 82
-1.359104e+00 -3.992022e-01 -3.892997e+00 60 72 82
-3.028771e+00 -5.032292e+00 -2.428682e+00 215 215 197
-2.819840e+00 -4.973179e+00 -2.502620e+00 38 42 53
-4.051086e+00 -4.780374e+00 -2.341188e+00 33 39 45
-4.051086e+00 -4.780374e+00 -2.341188e+00 33 39 45
-4.271312e+00 -4.669983e+00 -1.996666e+00 12 27 56
-4.271312e+00 -4.669983e+00 -1.996666e+00 12 27 56
-2.104170e+00 -4.665447e+00 -2.747293e+00 112 117 108
-2.184018e+00 -4.555708e+00 -2.690799e+00 94 102 103
-2.090874e+00 -4.481394e+00 -2.696662e+00 120 122 108
-3.462921e+00 -4.426596e+00 -2.427664e+00 82 85 98
-3.462921e+00 -4.426596e+00 -2.427664e+00 82 85 98
-1.666065e+00 -4.396261e+00 -2.845904e+00 157 161 160
-1.370562e+00 -4.160553e+00 -2.916486e+00 22 34 48
-5.476077e-01 -3.541214e+00 -3.365440e+00 14 38 72
-4.788707e+00 -2.622699e+00 -2.492501e+00 60 64 67
-3.287592e+00 -2.307375e+00 -2.942802e+00 191 198 192
-2.786575e+00 -2.194391e+00 -3.088698e+00 181 188 181
-2.159232e+00 -2.072192e+00 -3.244181e+00 189 201 197
-2.184175e+00 -1.933308e+00 -3.266729e+00 128 149 154
-4.764318e-01 -1.794846e+00 -3.637557e+00 148 168 171
-1.249331e+00 -1.598547e+00 -3.522475e+00 182 191 187
-1.261974e+00 -1.411105e+00 -3.595416e+00 67 72 74
-2.190508e+00 -4.681218e+00 -2.733010e+00 120 124 111
-8.302075e-01 -3.963011e+00 -3.210946e+00 148 161 161
-4.344260e+00 -2.908877e+00 -2.516422e+00 62 62 62
-4.199989e+00 -2.679015e+00 -2.614423e+00 177 185 185
-3.305362e+00 -2.220223e+00 -2.961969e+00 61 69 69
-2.155759e+00 -1.888741e+00 -3.291669e+00 177 189 191
-1.543997e+00 -1.808599e+00 -3.415477e+00 67 77 86
-1.102821e+00 -1.531904e+00 -3.586588e+00 186 190 183
-1.102821e+00 -1.531904e+00 -3.586588e+00 186 190 183
-7.226145e-01 -1.486372e+00 -3.689897e+00 178 194 190
-8.226501e-01 -1.067315e+00 -3.788024e+00 59 68 79
-4.641108e-01 -4.083928e+00 -3.365000e+00 225 224 211
-5.182012e-01 -3.557979e+00 -3.391840e+00 151 184 195
-9.358192e-01 -3.540240e+00 -3.005625e+00 157 173 171
-3.938135e+00 -2.591168e+00 -2.708469e+00 180 190 183
-3.243087e+00 -2.491931e+00 -2.893217e+00 58 63 66
-4.270616e+00 -2.482960e+00 -2.669563e+00 138 154 151
-3.183854e+00 -2.189231e+00 -3.007724e+00 128 147 151
-2.205011e+00 -2.017943e+00 -3.243237e+00 60 67 68
-2.541827e+00 -1.853269e+00 -3.232046e+00 62 66 74
-1.420242e+00 -1.235309e+00 -3.622327e+00 126 147 152
-4.040956e+00 -5.247275e+00 -2.149731e+00 40 38 76
-1.654475e+00 -4.025782e+00 -2.713066e+00 142 158 157
-2.817106e+00 -2.293209e+00 -3.052637e+00 166 177 176
-4.015449e+00 -2.307088e+00 -2.777269e+00 55 62 80
-3.297494e+00 -2.271157e+00 -2.953862e+00 140 155 154
-3.246807e+00 -2.255145e+00 -2.935126e+00 179 185 174
-1.942329e+00 -1.642958e+00 -3.376395e+00 113 141 139
-6.708943e-01 -1.471335e+00 -3.700228e+00 128 150 162
-7.314514e-01 -1.246908e+00 -3.745402e+00 185 196 194
-4.049827e+00 -5.277984e+00 -2.136463e+00 59 66 89
-4.052001e+00 -5.277805e+00 -2.140433e+00 59 66 89
-3.392335e+00 -5.207470e+00 -2.309601e+00 66 75 109
-3.360914e+00 -5.196391e+00 -2.324253e+00 78 65 101
-3.020593e+00 -5.057903e+00 -2.427510e+00 227 229 187
-4.305987e+00 -4.684154e+00 -1.980408e+00 128 153 145
-4.503151e+00 -4.474943e+00 -2.021658e+00 21 37 55
-4.514595e+00 -4.472580e+00 -2.018184e+00 39 45 56
-4.863230e-01 -4.090372e+00 -3.254615e+00 87 98 114
-3.149456e+00 -2.450719e+00 -2.941518e+00 149 163 166
-2.733482e+00 -2.039590e+00 -3.053893e+00 131 146 173
-1.598024e+00 -1.694767e+00 -3.441506e+00 175 184 176
-4.033587e+00 -5.240625e+00 -2.150921e+00 76 74 85
-4.033587e+00 -5.240625e+00 -2.150921e+00 76 74 85
-4.015905e+00 -5.224078e+00 -2.151447e+00 67 74 103
-3.823347e+00 -5.177644e+00 -2.216340e+00 179 183 153
-1.639747e+00 -4.402733e+00 -2.475910e+00 49 54 65
-4.228381e+00 -4.363991e+00 -2.116391e+00 26 39 65
5.817803e-01 -3.619776e+00 -3.615953e+00 204 210 178
-8.599660e-02 -2.533170e+00 -3.825865e+00 179 188 172
-2.168294e+00 -2.099059e+00 -3.234412e+00 136 159 162
-3.288057e+00 -2.181002e+00 -2.981595e+00 58 61 54
-1.266579e+00 -1.422855e+00 -3.593553e+00 65 65 73
-9.329379e-01 -1.398473e+00 -3.656827e+00 170 179 173
1.194117e+00 -2.236649e+00 -4.185541e+00 105 112 136
-1.089617e+00 -4.149894e+00 -2.930133e+00 127 135 143
-1.104279e+00 -4.085512e+00 -3.034982e+00 17 18 22
-7.664403e-01 -3.825731e+00 -3.210804e+00 16 27 37
-7.114211e-01 -3.758870e+00 -3.242273e+00 22 29 32
-5.990323e-01 -3.571452e+00 -3.313035e+00 154 163 162
1.140032e+00 -1.585715e+00 -4.430507e+00 31 41 60
9.821577e-01 -1.900985e+00 -4.250800e+00 208 216 202
1.081871e+00 -3.415140e+00 -3.778790e+00 170 171 173
-7.205310e-01 -3.648703e+00 -3.226737e+00 160 176 144
-7.709728e-01 -3.636244e+00 -3.188711e+00 164 179 161
-2.575763e-01 -2.870455e+00 -3.625131e+00 31 43 66
-2.740520e-01 -2.183244e+00 -3.952056e+00 32 39 56
1.084723e-01 3.285878e-01 -4.536490e+00 122 135 106
2.334761e-01 -3.650820e+00 -3.541511e+00 169 168 158
1.360186e+00 -2.608879e+00 -4.104014e+00 190 190 180
2.135786e-01 -3.629518e+00 -3.541392e+00 93 84 118
3.535288e-01 -3.571436e+00 -3.588917e+00 92 94 116
7.153359e-02 -3.744424e+00 -3.474748e+00 103 105 118
9.702021e-01 -3.477223e+00 -3.738558e+00 164 164 139
-1.184510e+00 -1.547882e+00 -3.588090e+00 65 66 47
-6.861893e-01 -3.708252e+00 -3.238038e+00 163 171 121
-6.720880e-01 -3.535961e+00 -3.457825e+00 175 182 136
-5.089201e-01 -3.468835e+00 -3.361847e+00 31 31 33
-2.446815e-01 -2.421111e+00 -3.850084e+00 26 27 22
-3.930003e-01 -3.238840e+00 -3.459127e+00 30 31 26
-1.937098e+00 -1.869214e+00 -3.326896e+00 182 187 140
-7.456306e-01 -3.453878e+00 -3.402309e+00 180 188 114
-4.568442e+00 -2.999410e+00 -2.479551e+00 174 177 128
-5.588399e-01 -3.454135e+00 -3.543839e+00 191 199 127
-5.305525e-01 -3.147913e+00 -3.566941e+00 182 187 149
-4.975119e-01 -3.064117e+00 -3.598463e+00 181 187 135
-1.800083e+00 -1.840961e+00 -3.339465e+00 183 187 149
-2.476754e+00 -2.203655e+00 -3.106979e+00 72 70 51
1.144239e+00 -3.383315e+00 -3.801102e+00 215 209 137
1.026958e+00 -3.453987e+00 -3.760282e+00 135 124 82
1.701268e+00 -2.752548e+00 -4.117419e+00 204 199 145
1.701268e+00 -2.752548e+00 -4.117419e+00 204 199 145
-3.002614e+00 1.193234e+01 -5.190292e+01 212 209 166
1.210707e+00 -3.379924e+00 -3.817317e+00 166 161 124
8.550265e-01 -3.521149e+00 -3.704886e+00 151 144 108
3.875391e-01 -3.562933e+00 -3.696285e+00 129 123 62
7.440232e-01 -3.554597e+00 -3.667207e+00 102 100 109
9.384299e-02 -3.717097e+00 -3.490677e+00 181 180 161
7.563390e-01 -3.464670e+00 -3.702495e+00 182 183 167
2.187237e-01 -3.692500e+00 -3.524033e+00 185 185 159
3.379562e-01 -3.724882e+00 -3.533273e+00 96 96 104
4.664694e-01 -3.331773e+00 -2.687014e+00 184 184 162
6.935993e-01 -3.577311e+00 -3.650333e+00 108 110 120
1.102090e+00 -3.406291e+00 -3.743447e+00 103 103 103
6.936273e-01 -3.488228e+00 -3.682171e+00 141 141 100
5.598597e-01 -3.615482e+00 -3.609786e+00 148 144 103
6.970158e-01 -3.496127e+00 -3.679318e+00 18 13 27
-4.275203e-01 -2.355502e+00 -3.408228e+00 83 80 68
-1.795161e+00 -1.467438e+00 -3.471494e+00 44 44 52
-4.391325e-01 -1.274972e+00 -4.058886e+00 13 23 35
-3.592711e+00 -2.532349e+00 -2.798271e+00 170 164 162
-1.124853e+00 -1.368700e+00 -3.662413e+00 44 44 42
7.292951e-01 -2.209613e+00 -3.583954e+00 165 159 175
-2.540572e+00 -2.181088e+00 -3.140358e+00 70 75 73
-3.261906e+00 -2.273436e+00 -2.980912e+00 160 172 160
-7.062827e-01 -3.511373e+00 -3.510396e+00 25 28 34
-4.785083e+00 -2.534526e+00 -2.540624e+00 181 188 182
8.251426e-02 -3.735377e+00 -3.481239e+00 102 102 106
-3.216818e+00 -2.115762e+00 -3.034502e+00 150 160 161
1.064676e+00 -3.407303e+00 -3.762356e+00 196 200 185
-3.583526e+00 -2.232541e+00 -2.899354e+00 64 63 35
-3.185263e+00 -2.232933e+00 -3.001027e+00 172 176 146
-4.027863e+00 -2.470882e+00 -2.721582e+00 187 184 148
-4.027863e+00 -2.470882e+00 -2.721582e+00 187 184 148
-3.969375e+00 -2.619239e+00 -2.695723e+00 199 197 152
-4.987953e+00 -2.464273e+00 -2.517409e+00 204 201 163
-3.184407e+00 -2.308001e+00 -2.963445e+00 62 64 50
-4.863855e+00 -1.234243e+00 -2.883091e+00 145 150 127
-4.585268e+00 -2.901532e+00 -2.467141e+00 192 195 150
-4.191587e+00 -2.838687e+00 -2.572168e+00 72 69 52
-4.525635e+00 -2.820998e+00 -2.515320e+00 196 195 151
-4.484397e+00 -2.259979e+00 -2.699902e+00 197 197 156
-4.218088e+00 -2.312202e+00 -2.728188e+00 201 201 156
-4.176883e+00 -2.324372e+00 -2.754192e+00 152 157 122
-3.869573e+00 -2.259349e+00 -2.832171e+00 204 203 158
-3.239939e+00 -2.524964e+00 -2.870609e+00 192 196 164
-3.417360e+00 -2.185236e+00 -2.954641e+00 192 195 155
-3.301622e+00 -2.217615e+00 -2.966776e+00 77 78 63
-3.457127e+00 -2.065840e+00 -2.987938e+00 198 197 163
1.652304e-01 -3.684086e+00 -3.514712e+00 90 94 108
-3.321846e+00 -2.033140e+00 -3.024816e+00 206 206 170
-4.833289e+00 -1.132645e+00 -2.913422e+00 139 146 122
6.844114e-01 -3.491715e+00 -3.677258e+00 147 151 134
6.844114e-01 -3.491715e+00 -3.677258e+00 147 151 134
-2.245123e+00 -1.971829e+00 -3.259664e+00 154 160 134
-2.523083e+00 -1.719474e+00 -3.284848e+00 201 201 168
1.333042e+00 -2.655323e+00 -4.082874e+00 230 232 208
-3.509760e+00 -2.570899e+00 -2.798569e+00 184 188 147
-3.269402e+00 -2.264208e+00 -2.969406e+00 164 169 134
-2.859315e+00 -2.213500e+00 -3.069568e+00 152 159 128
-2.909909e+00 -1.990947e+00 -3.144476e+00 178 184 143
-2.707506e+00 -1.864918e+00 -3.200063e+00 147 155 127
-5.316028e+00 -1.184409e+00 -3.107959e+00 106 105 44
-3.111145e+00 -2.293639e+00 -2.985191e+00 190 189 145
-5.142763e+00 -1.305185e+00 -2.822637e+00 28 33 39
-2.811988e+00 -2.300141e+00 -3.046471e+00 172 177 120
-3.352223e+00 -2.016102e+00 -3.021318e+00 155 159 132
1.187521e+00 -3.369837e+00 -3.812371e+00 124 123 118
-4.355059e+00 -2.387901e+00 -2.692177e+00 145 149 117
-3.209377e+00 -2.120230e+00 -3.030353e+00 156 162 132
7.838567e-01 -3.447555e+00 -3.708399e+00 189 193 146
-2.283486e-01 -2.905391e+00 -3.635156e+00 29 29 27
-1.889669e-01 -2.392049e+00 -3.784764e+00 27 27 27
6.520795e-01 -3.589493e+00 -3.640515e+00 210 204 147
-4.811253e-01 -3.309818e+00 -3.620980e+00 199 202 144
-2.319134e-01 -2.858516e+00 -3.642213e+00 177 179 121
-2.550220e-01 -2.746554e+00 -3.753124e+00 165 174 107
-5.447150e+00 -3.009850e-02 -3.538157e+00 2 4 0
-6.518363e+00 -7.039575e-01 -3.291365e+00 160 157 138
-6.518363e+00 -7.039575e-01 -3.291365e+00 160 157 138
-4.869784e+00 -2.517783e+00 -2.535011e+00 57 54 46
-9.334144e-01 -1.430731e+00 -3.658146e+00 161 172 177
-3.206117e+00 -2.335223e+00 -2.965993e+00 65 66 68
-4.215413e+00 -2.468995e+00 -2.679650e+00 56 56 56
-4.936217e+00 -1.422796e+00 -2.851863e+00 149 159 156
-3.720688e+00 -2.310840e+00 -2.831826e+00 196 195 182
-4.792435e+00 -2.377262e+00 -2.600586e+00 184 187 168
-4.468547e+00 -2.421747e+00 -2.684735e+00 189 189 176
-4.985550e+00 -1.626523e+00 -2.794125e+00 145 155 146
-4.974602e+00 -1.570094e+00 -2.805565e+00 177 188 170
-4.294982e+00 -2.222856e+00 -2.755055e+00 64 64 71
-4.294982e+00 -2.222856e+00 -2.755055e+00 64 64 71
-4.960012e+00 -1.474822e+00 -2.870116e+00 147 158 150
-3.812538e+00 -2.599975e+00 -2.734301e+00 191 192 176
-4.394358e+00 -4.924498e-01 -3.246596e+00 150 160 155
-3.489851e+00 2.766596e-03 -3.557277e+00 152 168 167
-9.624991e-01 -1.463881e+00 -3.639070e+00 204 204 202
-4.858818e+00 -9.556118e-01 -3.015703e+00 160 172 167
-3.463829e+00 -2.265649e+00 -2.915143e+00 139 147 148
-2.856613e+00 -2.273574e+00 -3.040701e+00 71 75 87
-2.622001e+00 -1.841003e+00 -3.207196e+00 72 74 85
-1.229626e+00 -1.491765e+00 -3.579947e+00 204 205 199
-5.058905e+00 -2.332635e+00 -2.557593e+00 138 144 136
-4.207530e+00 -2.668260e+00 -2.617876e+00 184 186 174
-2.953394e+00 -2.403048e+00 -2.994051e+00 182 186 179
-2.501507e+00 -2.073884e+00 -3.177149e+00 144 152 152
-1.393148e+00 -1.411524e+00 -3.566492e+00 141 154 162
-3.950320e+00 -2.236681e+00 -2.826712e+00 145 156 157
-4.393112e+00 -1.593985e+00 -2.924569e+00 137 149 146
-3.515233e+00 -2.060313e+00 -2.968024e+00 146 155 156
-4.447679e+00 -1.784709e+00 -2.844646e+00 186 194 179
-3.662401e+00 -2.463018e+00 -2.809562e+00 80 78 91
-4.530758e+00 -9.567883e-01 -3.078451e+00 163 175 171
-3.240780e+00 -1.776273e+00 -3.112021e+00 152 163 161
-4.965960e+00 -1.980731e+00 -2.690058e+00 171 183 170
-4.462652e+00 -1.526030e+00 -2.929761e+00 176 185 181
1.208329e+00 -2.227504e+00 -4.188443e+00 189 195 187
1.328862e+00 -2.624792e+00 -4.086737e+00 94 94 109
9.783762e-01 -1.860693e+00 -4.257946e+00 67 70 83
-3.899278e+00 -2.432614e+00 -2.766279e+00 175 183 180
-2.218570e+00 -1.760355e+00 -3.329663e+00 169 182 181
2.257786e-01 -3.644779e+00 -3.540279e+00 59 74 88
1.079614e+00 -3.417174e+00 -3.781570e+00 146 152 162
2.511219e-01 -3.659440e+00 -3.539669e+00 207 218 164
2.448758e-01 -3.648419e+00 -3.542294e+00 206 217 179
3.564490e-01 -3.618401e+00 -3.572564e+00 210 209 178
3.359137e-01 -3.619884e+00 -3.523542e+00 210 209 178
3.650046e-01 -3.592899e+00 -3.581641e+00 58 72 102
1.185369e+00 -3.370751e+00 -3.813555e+00 100 107 123
7.973574e-02 -3.691591e+00 -3.496966e+00 207 209 203
4.072844e-01 -3.667127e+00 -3.567927e+00 116 121 137
7.154004e-01 -3.574848e+00 -3.657792e+00 117 123 145
3.547411e-01 -3.570695e+00 -3.588174e+00 61 77 113
7.637287e-01 -3.446797e+00 -3.707311e+00 91 110 126
1.227522e+00 -3.371194e+00 -3.822638e+00 130 136 151
-3.143086e+00 -2.463201e+00 -2.919518e+00 149 163 166
7.587806e-01 -3.533673e+00 -3.679126e+00 129 137 151
7.530019e-01 -3.460850e+00 -3.701698e+00 192 200 188
9.769146e-01 -3.455227e+00 -3.747397e+00 109 118 132
1.041956e+00 -3.438088e+00 -3.765746e+00 186 189 170
-2.480628e+00 -2.194820e+00 -3.135205e+00 162 164 164
-2.583215e-01 -2.127516e+00 -3.823572e+00 17 17 17
1.125318e+00 -2.040126e+00 -4.229223e+00 227 223 175
1.539336e+00 -2.825601e+00 -4.059032e+00 83 77 52
1.051604e+00 -1.847099e+00 -4.194511e+00 36 28 37
1.049056e+00 -1.844056e+00 -4.193246e+00 36 28 37
7.548161e-01 -1.300657e+00 -4.383971e+00 196 200 137
1.033433e+00 -3.436576e+00 -3.768321e+00 143 146 136
1.033433e+00 -3.436576e+00 -3.768321e+00 143 146 136
-2.385865e-01 -2.387401e+00 -3.743781e+00 50 54 58
-1.749599e-02 1.512404e-01 -4.517672e+00 18 24 30
1.154853e+00 -2.035976e+00 -4.240147e+00 62 66 86
9.822593e-01 -1.663868e+00 -4.324202e+00 68 60 86
-1.623072e-01 -2.546384e+00 -3.781881e+00 49 57 60
6.893683e-02 -2.362209e+00 -3.624657e+00 47 56 67
-3.938656e-02 2.074036e-01 -4.506945e+00 162 169 154
-3.938656e-02 2.074036e-01 -4.506945e+00 162 169 154
8.534014e-01 -1.499599e+00 -4.345105e+00 126 131 139
7.225982e-01 -1.106144e+00 -4.449043e+00 38 46 61
-8.783443e-01 -2.478842e+00 -4.157267e+00 204 204 197
-4.814940e-02 -1.132732e-01 -4.490225e+00 40 44 56
-1.746742e+00 -1.474552e+00 -3.514707e+00 131 152 157
-2.458949e+00 -1.737547e+00 -3.276688e+00 67 67 76
-1.695284e+00 -1.530688e+00 -3.516540e+00 65 69 79
9.980351e-01 -3.439154e+00 -3.758401e+00 99 91 115
1.332606e+00 -2.627157e+00 -4.087927e+00 138 140 146
6.893651e-01 -3.478268e+00 -3.682688e+00 117 114 129
-5.528823e-01 -1.036243e+00 -4.117175e+00 13 20 28
-5.645737e-01 -9.922114e-01 -4.141785e+00 125 135 145
-6.979251e-01 -8.068079e-01 -4.168384e+00 12 17 20
-6.780927e-01 -9.192985e-01 -4.087812e+00 16 22 26
-8.453581e-01 -7.136410e-01 -4.110887e+00 147 151 156
-1.328605e+00 -3.685365e-01 -3.900359e+00 127 140 149
-6.759643e-01 -7.372732e-01 -4.195926e+00 12 21 29
-1.231834e+00 -5.693152e-01 -3.845715e+00 157 172 162
-1.023187e+00 -6.657657e-01 -3.835045e+00 142 159 153
-1.482093e+00 1.279485e-01 -4.382550e+00 218 215 197
-1.482093e+00 1.279485e-01 -4.382550e+00 218 215 197
-9.841071e-02 -4.059175e-01 -3.965404e+00 127 128 117
9.418905e-01 -8.780090e-01 -4.616189e+00 237 235 223
-6.319482e-01 -1.166168e+00 -3.798278e+00 116 133 138
-1.098872e+00 -5.892573e-01 -3.851578e+00 147 157 154
-1.264904e+00 -6.987830e-01 -3.817783e+00 125 138 139
-2.255946e+00 3.726217e-01 -4.238226e+00 22 25 33
-1.178361e+00 -6.146957e-01 -3.826544e+00 158 168 169
-1.349231e+00 -4.338026e-01 -3.857617e+00 51 59 63
-1.417978e+00 -2.823652e-01 -3.898406e+00 129 141 141
-1.900840e+00 -2.171365e-01 -3.835238e+00 119 133 142
-1.867381e+00 -2.250912e-01 -3.836199e+00 118 137 135
-1.341990e+00 -7.223645e-01 -3.787772e+00 111 126 133
-1.984104e+00 -5.626555e-02 -3.849508e+00 54 60 72
-1.175134e+00 -8.336862e-01 -3.779968e+00 129 142 148
-1.348597e+00 -6.174546e-01 -3.810922e+00 106 122 121
-9.421388e-01 -9.603139e-01 -3.802091e+00 178 182 185
-5.821427e-01 -1.312762e+00 -3.764463e+00 122 139 146
-5.821427e-01 -1.312762e+00 -3.764463e+00 122 139 146
-5.036390e-01 -1.341031e+00 -3.769312e+00 127 141 142
-6.288074e-01 -1.214705e+00 -3.779088e+00 112 129 136
-1.429366e+00 -3.759110e-01 -3.875979e+00 36 38 51
-1.209016e+00 -5.607991e-01 -3.843938e+00 41 45 57
-2.074485e+00 2.796438e-01 -4.217184e+00 18 26 33
-2.949431e-01 -1.483649e+00 -4.076593e+00 147 170 189
-1.019733e+00 -6.480660e-01 -3.861448e+00 128 140 142
-1.307209e+00 -7.554910e-01 -3.778501e+00 133 146 154
-1.307209e+00 -7.554910e-01 -3.778501e+00 133 146 154
-1.243916e+00 -7.631638e-01 -3.781989e+00 123 133 133
-1.208983e+00 -7.569402e-01 -3.783426e+00 135 150 145
-1.157749e+00 -7.952417e-01 -3.783103e+00 144 157 150
-1.157749e+00 -7.952417e-01 -3.783103e+00 144 157 150
-1.770863e+00 -1.720712e-01 -3.870151e+00 175 181 182
-1.919725e+00 -1.664072e-02 -3.871402e+00 111 124 126
-9.134018e-01 -1.000240e+00 -3.774938e+00 134 145 148
-1.716413e+00 -9.809505e-02 -3.902654e+00 122 136 142
-1.855432e+00 4.450406e-02 -3.906184e+00 134 141 148
-1.855432e+00 4.450406e-02 -3.906184e+00 134 141 148
-1.036857e+00 -7.523145e-01 -3.822857e+00 51 59 71
-1.491065e+00 -2.579047e-01 -3.906185e+00 119 137 142
-8.381751e-01 -8.817293e-01 -3.835887e+00 134 148 149
-9.633993e-01 -7.368479e-01 -3.837631e+00 115 131 133
-8.592268e-01 -8.366311e-01 -3.836127e+00 120 135 133
-1.568249e+00 -1.130808e-01 -3.920116e+00 117 133 133
-1.296327e+00 -3.609449e-01 -3.886793e+00 121 140 136
-6.004962e-01 -2.316401e-01 -4.272303e+00 32 30 46
9.426703e-01 -8.127863e-01 -4.595830e+00 209 212 201
-1.721714e+00 -4.420894e-01 -3.807715e+00 118 135 140
-1.825764e+00 -3.215493e-01 -3.814096e+00 117 131 134
-1.733513e+00 -3.941047e-01 -3.815883e+00 117 129 134
-1.646242e+00 -4.674695e-01 -3.810843e+00 115 127 138
-1.558600e+00 -5.343770e-01 -3.807320e+00 115 130 136
-1.327280e+00 -7.634595e-01 -3.780774e+00 135 146 154
-1.261607e+00 -8.126813e-01 -3.778715e+00 127 141 138
-1.538048e+00 -5.181706e-01 -3.814526e+00 115 133 140
-1.565992e+00 -4.890118e-01 -3.818485e+00 112 126 127
-1.061536e+00 -9.994471e-01 -3.786378e+00 111 125 125
-1.150244e+00 -8.397423e-01 -3.776320e+00 118 132 132
-1.560168e+00 -4.115667e-01 -3.845514e+00 121 141 151
-1.556733e+00 -3.742686e-01 -3.846193e+00 124 138 144
-1.248568e+00 -6.728841e-01 -3.814301e+00 129 144 146
-1.457844e+00 -4.534498e-01 -3.844358e+00 110 126 130
-1.028697e+00 -8.773498e-01 -3.786801e+00 128 147 148
-1.375895e+00 -5.272597e-01 -3.841080e+00 173 184 177
-5.369536e-01 -1.373156e+00 -3.757688e+00 123 138 139
-1.424346e+00 -4.700027e-01 -3.839585e+00 116 130 136
-7.087677e-01 -1.183935e+00 -3.781545e+00 134 142 150
-1.105404e+00 -7.673930e-01 -3.801098e+00 134 145 149
-1.342874e+00 -5.238003e-01 -3.839198e+00 126 140 143
-1.510694e+00 -3.518068e-01 -3.863779e+00 125 135 142
-1.510694e+00 -3.518068e-01 -3.863779e+00 125 135 142
-1.230332e+00 -6.059782e-01 -3.834170e+00 161 175 171
-8.419240e-01 -9.950704e-01 -3.806973e+00 128 141 146
-1.033508e+00 -7.896479e-01 -3.811579e+00 123 139 137
-1.295774e+00 -5.245741e-01 -3.841694e+00 127 139 145
-1.295774e+00 -5.245741e-01 -3.841694e+00 127 139 145
-8.269702e-01 -9.793562e-01 -3.784989e+00 126 140 140
-1.678756e+00 -1.064207e-01 -3.901300e+00 123 138 135
-9.487328e-01 -8.352549e-01 -3.826342e+00 125 141 146
-8.067656e-01 -9.454606e-01 -3.822013e+00 131 143 142
-1.292091e+00 -4.127206e-01 -3.878571e+00 157 170 164
-1.294207e+00 -4.030952e-01 -3.884041e+00 113 123 126
-1.430479e+00 -2.604207e-01 -3.900299e+00 110 123 125
-1.157957e+00 -4.596329e-01 -3.878178e+00 120 131 133
-9.537633e-01 -6.596964e-01 -3.873956e+00 126 141 134
-1.046406e+00 -5.317617e-01 -3.881724e+00 115 127 125
-6.819113e-01 8.227580e-01 -4.010756e+00 75 100 106
1.464645e-01 3.188849e-01 -4.501060e+00 152 165 136
-1.701375e+00 -5.057732e-01 -3.792239e+00 122 136 144
-1.518712e+00 -5.687594e-01 -3.805040e+00 117 133 137
-1.699405e+00 -3.667733e-01 -3.826778e+00 132 142 139
-1.383941e+00 -6.557654e-01 -3.796113e+00 115 131 130
-1.077703e+00 -9.494449e-01 -3.794597e+00 113 127 138
-1.346041e+00 -6.155395e-01 -3.816073e+00 105 124 121
-1.342368e+00 -5.943795e-01 -3.817180e+00 114 128 137
-1.590119e+00 -3.040402e-01 -3.863467e+00 112 132 133
-1.774937e+00 -7.209697e-02 -3.898736e+00 103 116 123
-1.525571e+00 -3.078371e-01 -3.873587e+00 51 63 67
-7.642228e-01 -1.063957e+00 -3.796448e+00 135 148 151
-1.205921e+00 -5.956792e-01 -3.835505e+00 120 130 131
-1.044885e+00 -7.408801e-01 -3.823382e+00 39 49 58
-1.582993e+00 -1.954691e-01 -3.894549e+00 121 133 139
-9.382890e-01 -7.890150e-01 -3.822117e+00 112 131 127
-6.324907e-01 -1.098447e+00 -3.814915e+00 135 146 149
-8.092888e-01 -9.063225e-01 -3.841802e+00 134 149 154
-1.433473e+00 -2.033657e-01 -3.917661e+00 130 144 138
-1.218035e+00 -3.994641e-01 -3.903852e+00 176 185 164
-1.036243e+00 -5.186252e-01 -3.887666e+00 127 138 133
-5.737079e-01 -2.258452e-01 -4.263843e+00 87 95 92
-1.269097e+00 -7.959563e-01 -3.791035e+00 165 177 169
-9.979988e-01 -1.014546e+00 -3.767438e+00 132 148 154
-1.430858e+00 -5.546715e-01 -3.806212e+00 129 145 146
-9.455841e-01 -9.686905e-01 -3.791287e+00 124 139 143
-1.665540e+00 -2.385362e-01 -3.869945e+00 144 156 157
-7.029754e-01 -1.177491e+00 -3.781500e+00 182 193 184
-1.184360e+00 -6.465583e-01 -3.822633e+00 125 137 138
-8.809678e-01 -7.547990e-01 -3.850660e+00 176 186 183
-1.297555e+00 -5.154043e-01 -3.855112e+00 138 154 150
-4.793841e-01 4.114279e-01 -3.990474e+00 110 113 132
-5.783956e-01 4.495277e-01 -4.002339e+00 202 203 197
-3.130546e-01 4.326741e-01 -3.840575e+00 76 76 78
-1.632279e+00 -1.719537e-01 -3.876804e+00 157 163 162
-6.733653e-01 4.426851e-01 -3.963432e+00 13 13 16
-3.511584e-01 3.870832e-01 -4.035531e+00 190 194 172
-2.649450e-01 3.671321e-01 -4.018037e+00 134 138 141
-1.488642e+00 -3.511663e-01 -3.878984e+00 133 146 147
-1.376937e+00 -3.397131e-01 -3.869424e+00 158 169 152
-1.874073e-01 3.479143e-01 -4.025305e+00 135 140 146
-1.622439e+00 -2.539179e-01 -3.845776e+00 133 138 141
-1.311322e+00 -2.958788e-01 -3.918526e+00 144 153 148
-4.490602e-01 -1.013181e-01 -3.984489e+00 59 66 86
-6.342731e-01 4.525653e-01 -4.070508e+00 110 118 139
-6.342731e-01 4.525653e-01 -4.070508e+00 110 118 139
-6.384485e-01 4.603099e-01 -4.002514e+00 181 179 161
-3.388980e-01 4.926057e-01 -3.788560e+00 181 176 154
-3.397890e-01 4.916555e-01 -3.785974e+00 181 176 154
-3.718505e-01 5.410790e-01 -3.811310e+00 178 174 173
-1.232258e+00 -7.767684e-01 -3.792480e+00 181 187 181
-1.452590e+00 -3.721895e-01 -3.861715e+00 150 156 162
-1.346940e+00 -4.561950e-01 -3.871222e+00 139 151 145
-9.375157e-01 -9.247422e-01 -3.811893e+00 128 142 141
-1.454479e+00 -2.767781e-01 -3.884330e+00 113 123 120
-3.301034e-01 4.779160e-01 -3.780987e+00 63 58 61
-1.553958e+00 -3.973684e-01 -3.822786e+00 174 186 184
-1.410699e+00 -4.236442e-01 -3.853544e+00 147 160 142
-1.288135e+00 -5.229570e-01 -3.860540e+00 165 178 167
-1.483388e+00 -2.827481e-01 -3.876549e+00 67 78 92
-9.594866e-01 -7.888155e-01 -3.844597e+00 166 180 178
-7.641590e-01 -8.727996e-01 -3.858762e+00 184 191 183
-1.060794e+00 -4.941231e-01 -3.913867e+00 156 166 157
-4.844289e-01 -6.044768e-02 -3.932434e+00 115 114 121
-3.590480e-01 5.173287e-01 -3.789225e+00 172 171 138
-1.187731e+00 -7.979544e-01 -3.802481e+00 121 134 139
-1.748834e+00 -1.007415e-01 -3.854202e+00 125 130 133
-1.004304e+00 -9.208623e-01 -3.794132e+00 125 143 131
-1.333055e+00 -4.703973e-01 -3.864595e+00 128 141 128
-1.008613e+00 -8.313437e-01 -3.824483e+00 119 133 136
-6.163843e-01 -1.209717e+00 -3.780080e+00 149 163 143
-8.879132e-01 -8.358325e-01 -3.845500e+00 178 194 160
-3.360454e-01 -1.567897e-02 -4.026133e+00 200 206 169
-1.220566e+00 -5.596749e-01 -3.859797e+00 122 125 114
-4.874368e-01 -5.447281e-02 -3.947401e+00 185 190 168
-3.900055e+00 -3.861172e+00 -2.312120e+00 157 164 130
5.882806e-01 -2.937689e+00 -3.480979e+00 207 210 193
-2.595019e+00 -5.012415e+00 -4.337002e+00 115 121 93
-3.678598e+00 -2.475610e+00 -2.815384e+00 153 153 107
-2.659664e+00 -1.895441e+00 -3.202538e+00 148 158 157
-2.658374e+00 -1.895512e+00 -3.199428e+00 148 158 157
-3.803890e+00 -4.965369e+00 -2.323423e+00 184 180 178
-8.444877e-01 -1.067787e+00 -3.776631e+00 74 76 87
-1.553093e+00 -1.806982e+00 -3.408388e+00 69 73 89
-1.553093e+00 -1.806982e+00 -3.408388e+00 69 73 89
-1.664271e+00 -1.474415e+00 -3.500438e+00 186 194 182
-3.675376e+00 -2.478404e+00 -2.811900e+00 159 160 142
-4.674220e+00 -3.207133e+00 -2.351480e+00 47 50 57
1.170927e+00 -3.373280e+00 -3.808580e+00 141 135 149
1.170927e+00 -3.373280e+00 -3.808580e+00 141 135 149
-2.449469e+00 -4.720695e+00 -2.629661e+00 92 97 87
1.591729e+00 -2.593804e+00 -4.180378e+00 13 27 74
-7.541195e-01 -3.234055e+00 -3.393524e+00 66 71 83
-3.629951e-01 -2.888961e+00 -3.717682e+00 113 113 93
-3.446237e-01 -2.800381e+00 -3.749176e+00 108 110 87
-2.612469e-01 -2.669927e+00 -3.743059e+00 13 13 14
-3.003749e-01 -2.436105e+00 -3.870848e+00 122 123 118
-2.544486e-01 -2.168738e+00 -3.880834e+00 130 133 126
-2.864155e+00 -2.292662e+00 -3.044338e+00 85 87 51
-5.132494e+00 4.448498e-02 -3.662852e+00 52 53 44
-3.150473e+00 -5.149202e+00 -2.377355e+00 219 221 181
-2.720455e+00 -4.732818e+00 -2.564933e+00 121 128 70
-2.807981e+00 -2.325579e+00 -3.044750e+00 190 198 137
-1.581810e+00 -1.728144e+00 -3.444014e+00 205 202 166
-3.156214e+00 -5.119796e+00 -2.380059e+00 219 219 181
-1.245988e+00 -1.510627e+00 -3.566888e+00 204 204 167
-4.046045e+00 -5.266193e+00 -2.146276e+00 216 219 175
-4.114411e+00 -5.286564e+00 -2.126798e+00 211 210 167
-8.374255e-01 -1.419765e+00 -3.701385e+00 77 78 67
-2.068660e+00 -1.673202e+00 -3.372502e+00 92 89 77
-3.836067e+00 -5.163763e+00 -2.219440e+00 71 62 80
-3.357493e+00 -5.207708e+00 -2.314713e+00 226 229 193
-4.032449e+00 -5.270870e+00 -2.146748e+00 96 87 103
-4.550147e+00 -2.912190e+00 -2.451305e+00 40 43 48
1.260377e+00 -1.738163e+00 -4.319333e+00 147 149 146
1.027342e+00 -1.567820e+00 -4.282933e+00 181 181 186
-2.306918e-02 2.293666e-01 -4.540952e+00 127 135 137
1.147710e+00 -2.144287e+00 -4.191968e+00 231 231 221
1.177837e+00 -1.878241e+00 -4.133939e+00 230 230 220
1.046423e+00 -1.729928e+00 -4.228141e+00 221 222 216
-3.732179e+00 -2.442752e+00 -2.847151e+00 71 80 85
-4.991675e+00 -2.761214e+00 -2.519049e+00 174 193 193
-2.742502e+00 -2.114627e+00 -3.123175e+00 81 89 92
3.111930e-02 -1.838876e+00 -3.771603e+00 81 86 89
-2.108241e-01 -1.833405e+00 -3.860287e+00 85 88 90
-1.179928e+00 -1.522017e+00 -3.576306e+00 78 83 87
-8.310583e-02 1.428245e-01 -4.639998e+00 175 182 166
-6.652697e-01 8.650523e-01 -4.950704e+00 10 13 18
-1.954328e-01 -1.794448e+00 -3.898366e+00 216 215 195
-1.494664e-01 -2.138138e+00 -3.791630e+00 178 180 172
